# .PCD v0.7 - Point Cloud Data file format
VERSION 0.7
FIELDS x y z
SIZE 4 4 4
TYPE F F F
COUNT 1 1 1
WIDTH 92
HEIGHT 1
VIEWPOINT 0 0 0 1 0 0 0
POINTS 92
DATA ascii
-19.417114 2.5843599 -19.440212
-15.022829 2.1994402 -19.754095
-8.9828157 2.2041316 -19.746899
-2.7602453 2.2933595 -19.674414
0.058269024 2.999167 -19.041121
-19.493469 8.9804239 -19.519554
-15.03095 8.9921522 -20.009495
-8.9873571 8.9845343 -19.999182
-2.6521223 8.990283 -19.874176
0.061571114 8.9821939 -19.048628
-19.491577 15.015612 -19.516693
-15.033587 15.024698 -20.008999
-8.9863253 15.020367 -19.997458
-2.6385167 15.017856 -19.870207
0.060980529 14.99638 -19.045778
-19.310141 19.326429 -19.338152
-15.023834 19.509895 -19.51388
-8.9948921 19.506929 -19.509411
-2.8516188 19.47196 -19.462975
0.055663325 19.004227 -19.038603
-19.739079 2.2048213 -15.037524
-15.017202 0.0093285972 -15.035766
-8.9870777 0.0094430167 -15.034103
-2.1043484 0.89136893 -15.000564
0.059792828 2.9052293 -15.109335
-19.990973 9.0023613 -15.046942
-0.059302352 9.0200729 -14.921297
0.06218579 8.9829741 -15.101059
-19.989582 15.040626 -15.045938
-0.057709418 15.051564 -14.920048
0.061715443 15.022292 -15.119993
-19.496544 19.509287 -15.032378
-15.016355 20.008629 -15.036815
-8.9852161 20.009096 -15.031935
-2.5747008 19.873476 -15.021239
0.059571024 19.053017 -15.110096
-19.746841 2.1978061 -8.9964914
-15.014047 0.0093777552 -8.9959106
-8.9879417 0.0095217703 -8.9993954
-1.9697844 1.0272844 -8.9692049
0.06168307 2.9034235 -9.100461
-20.002102 8.9920807 -9.0013762
-0.058752183 9.0132523 -8.8979836
0.064306617 8.9706278 -9.0893412
-20.00131 15.026988 -8.9998541
-0.057596613 15.044619 -8.9130936
0.064238027 15.006438 -9.1058064
-19.505455 19.50956 -8.9969349
-15.010071 20.009127 -8.9978323
-8.9735394 20.010265 -8.9998426
-2.4987791 19.84807 -8.9862766
0.062439419 19.044664 -9.1071138
-19.652716 2.3320456 -2.6058762
-15.050113 1.0993792 -1.9044659
-9.0190268 0.97100127 -2.0257566
-2.1109555 1.5046027 -2.4110832
0.061940558 2.9133725 -3.0991595
-19.82408 8.9972191 -2.4388385
-15.097456 9.0006428 -0.057513341
-9.0749512 9.0061855 -0.058117293
-1.2429293 9.0051746 -1.797668
0.065166481 8.9788752 -3.0811272
-19.820948 15.028929 -2.4264987
-15.101732 15.039432 -0.056120783
-9.0736609 15.045228 -0.056245245
-1.2535709 15.045672 -1.7869879
0.065149881 15.006723 -3.0861833
-19.452263 19.455082 -2.7278802
-15.031268 19.827847 -2.4531002
-9.0049591 19.852924 -2.5224209
-2.5340273 19.737219 -2.665956
0.063573152 19.036299 -3.147438
-19.052881 2.9413486 0.057784706
-14.916286 2.8942308 0.05950648
-8.904542 2.8957143 0.058945864
-2.918452 2.9408665 0.058387987
0.059872095 2.9359961 0.069638684
-19.054487 8.9624357 0.062064853
-14.902308 8.9643927 0.063214436
-8.9036026 8.9691401 0.062238023
-2.8814187 8.9793577 0.061464667
0.058346711 8.8972569 0.07478229
-19.059755 14.967506 0.06304805
-14.904888 14.989295 0.063910693
-8.8966408 14.994233 0.062669933
-2.8790102 15.005001 0.061430227
0.067249998 14.902019 0.073733263
-19.034952 19.027763 0.062941559
-14.920414 19.055946 0.062480099
-8.8922338 19.055899 0.060630914
-2.9412119 19.044523 0.05829528
0.077145852 19.145445 0.068295605
