# .PCD v0.7 - Point Cloud Data file format
VERSION 0.7
FIELDS x y z
SIZE 4 4 4
TYPE F F F
COUNT 1 1 1
WIDTH 1601
HEIGHT 1
VIEWPOINT 0 0 0 1 0 0 0
POINTS 1601
DATA ascii
29.135548 80.922623 0.83875871
30.547235 80.977547 1.057832
1.7232914 82.83181 1.608556
3.1061578 82.884743 1.0359681
4.7861309 83.028694 0.59821248
6.9611249 83.093437 0.53465629
9.0126524 83.097679 0.47929844
11.066806 83.035599 0.56451511
13.298744 83.095436 0.54919577
14.960355 83.053375 0.5451389
17.195436 83.162148 0.50314158
19.229361 82.987419 0.50212973
21.097044 83.095154 0.77273613
23.027317 83.103981 0.61134225
25.108131 82.927757 0.72046381
27.014902 82.93692 0.55931211
29.174967 82.969879 0.73120672
30.54985 82.789642 0.91975862
1.5310793 85.037422 1.6619235
3.0155027 84.983215 0.95483714
4.8392577 85.00563 0.56883794
7.0273752 84.935425 0.48095277
8.9899521 84.980515 0.38104135
10.98964 84.806541 0.5148378
13.289064 85.057892 0.51288313
15.021604 85.035217 0.53611469
17.232237 85.171364 0.49035022
19.253315 84.997261 0.50317991
21.245661 84.916435 0.61705828
23.027185 85.124535 0.68546897
24.896345 84.870956 0.63391769
27.099163 84.996284 0.50524867
29.187286 85.093697 0.67475182
30.79944 84.903999 1.1069173
32.1427 85.486938 1.944984
1.5719916 87.049934 1.3778063
2.9987473 87.01442 0.83610761
4.7926903 86.98336 0.57074809
7.0098877 87.086189 0.51740474
8.894392 86.812698 0.49948436
10.949706 86.93531 0.57197863
13.259338 86.968407 0.5393011
15.059007 86.995567 0.67049003
17.056654 86.954086 0.7229712
19.087759 87.02758 0.78897744
21.174965 86.720314 0.57911777
23.017515 87.19294 0.56609833
25.134802 87.057114 0.53167808
27.130707 87.126648 0.52005911
29.252842 87.106789 0.62912583
30.933685 86.966766 1.1795163
32.154274 87.136246 1.7737288
1.4077042 89.11145 1.4283946
2.8814344 88.96167 0.83275592
5.0408897 89.000824 0.44258329
6.853857 89.043312 0.50724143
8.9732313 88.903954 0.47149593
10.955502 88.90023 0.63034552
13.269598 88.948227 0.6222797
15.074887 88.774513 0.55023319
17.214087 88.983879 0.50513345
19.217176 89.000015 0.49393776
21.14983 88.922699 0.69234586
22.857473 89.026672 0.72908533
25.152744 89.047569 0.54001254
27.010532 89.12793 0.5212931
29.27405 89.030144 0.52792376
30.954327 89.08757 1.0916332
32.305225 89.055145 1.6962146
1.2288781 90.980461 1.3776603
2.8127768 90.916222 0.83919954
5.0695691 91.080078 0.49446332
6.9686656 90.990097 0.47215441
8.8743677 90.973282 0.64316374
11.087569 90.958595 0.53782469
13.335359 90.767929 0.54800153
15.110209 91.030975 0.47672972
17.204811 91.111137 0.4700956
19.192169 91.079475 0.50103688
21.100714 91.040825 0.53494722
23.022406 91.056786 0.47509757
24.963911 90.995903 0.72308642
27.068703 91.126602 0.50052375
29.142191 91.081894 0.50792158
31.034065 90.954254 0.96595973
32.405346 91.039047 1.6735104
-0.0032749176 93.429672 1.960021
1.031535 93.130013 1.3945609
2.7448437 92.882973 0.73698533
5.0232887 93.040352 0.54834741
6.9770727 93.037704 0.63700336
9.0068321 92.942345 0.504466
11.146113 92.980164 0.51396459
13.265839 92.758308 0.5810172
15.220914 92.834007 0.55757666
17.265318 93.105812 0.53781533
19.212193 92.993767 0.45882049
21.142633 92.963142 0.51981914
23.068729 93.054535 0.54143983
25.092182 92.879578 0.55929559
27.059566 93.026718 0.66145808
29.11108 92.97718 0.49804133
30.979992 93.029572 0.88965344
32.492004 92.677612 1.418879
-0.041484833 95.127853 1.4664073
1.160087 94.96402 1.2210476
2.9019308 94.666634 0.70218486
5.1227307 94.997978 0.49394181
6.9173322 94.927162 0.63496351
8.8899736 95.002266 0.58632225
10.917756 94.893967 0.45087808
13.304264 94.895744 0.53652728
15.160674 94.860382 0.50698316
17.134205 95.046623 0.51093674
19.159327 94.842712 0.52759701
21.09775 95.009155 0.53579086
23.084221 94.982475 0.4561294
25.131472 94.9133 0.4917264
27.096638 94.944 0.74518865
28.963593 94.853554 0.52624565
31.073116 94.992958 0.94385594
32.486511 94.90654 1.3678088
-0.15848961 97.092995 1.7639492
1.2140832 96.90123 1.156757
2.8525019 96.841385 0.656367
4.9930592 96.938332 0.55166918
6.9460979 96.870399 0.59992158
9.0589886 96.786858 0.51233369
11.068461 97.005058 0.45201269
13.268964 97.048912 0.52002072
15.046824 96.870224 0.50230742
17.193254 97.197563 0.49237099
19.155401 96.912758 0.51432651
21.182253 97.026154 0.4648532
23.139486 96.86348 0.48411542
25.202993 96.89502 0.51355284
27.148661 97.003586 0.62685251
29.123808 97.000237 0.49167487
31.117777 97.005951 0.77150244
32.646454 97.010765 1.2864929
-0.19647853 98.745934 1.7092534
1.1976782 98.941925 1.1352637
2.8381684 98.970024 0.70724356
5.0441628 98.935463 0.56634706
6.9549794 99.069214 0.57743853
8.9812107 98.991043 0.52834189
10.980253 99.066788 0.43143368
13.221341 98.849487 0.51396316
15.121039 99.011345 0.51062405
17.120771 99.066254 0.51696968
19.22555 98.977371 0.55508369
21.205814 98.912361 0.48323846
23.117529 98.832123 0.47099113
25.083155 98.77964 0.47052395
27.122253 98.974541 0.68502152
29.123289 98.913879 0.51112241
31.141939 99.020897 0.90447855
32.519199 99.062286 1.1767397
-0.041696548 100.39945 1.6453214
1.1856391 100.99503 1.2958698
2.734875 101.04282 0.71764904
5.0539432 100.94973 0.52600026
6.9502721 101.20726 0.71119511
8.9933386 101.12067 0.50720894
10.909924 101.15816 0.44690648
13.187949 101.03751 0.51653379
15.162283 100.96843 0.47811201
17.138893 101.03459 0.48305809
19.221537 101.01356 0.53401661
21.198301 100.96947 0.5199368
23.044783 100.94325 0.43672282
25.046597 100.90154 0.44660988
26.938076 100.98477 0.81020713
29.072884 101.06792 0.55735791
31.030817 101.10427 0.94437999
32.467701 101.00653 1.3580718
1.2593678 103.04829 1.4497397
2.9240973 103.02465 0.92045391
4.9770246 103.08103 0.47388533
6.8870096 102.95972 0.61010814
8.9727316 103.00412 0.64836156
11.001751 103.06626 0.46776688
13.222078 103.12125 0.53228426
15.13338 103.1222 0.47183415
17.20038 103.10794 0.48893383
19.206087 103.0062 0.49546996
21.1556 102.96571 0.48919272
23.144266 102.9634 0.42201188
25.076031 103.03814 0.57215595
27.085207 103.05434 0.56597239
29.122961 103.26452 0.54734457
30.983362 103.07854 1.0958942
32.514725 103.20247 1.6936364
1.7247013 104.68355 1.4313711
2.9677129 105.03334 1.1467369
4.8445191 105.26965 0.68687677
6.8113046 104.95835 0.53622562
8.8405485 104.96766 0.68854386
10.917599 105.02131 0.54210562
13.118725 105.0029 0.50516272
15.166859 105.07742 0.55397731
17.164303 105.09559 0.55047113
19.237984 104.84545 0.56637782
21.255085 104.90334 0.49743685
23.123676 104.85371 0.56606287
25.059847 105.09367 0.6168322
27.003738 105.06646 0.56955063
29.14526 105.12203 0.92702848
30.681711 104.9536 1.2902223
3.4313262 106.89909 1.2995803
5.0010548 107.18041 0.93048322
6.817626 107.03088 0.49131799
8.9105101 106.87422 0.5942964
10.981433 106.78999 0.63789481
13.119267 106.91723 0.58006597
15.149681 107.0833 0.54335988
17.179577 107.14236 0.49731216
19.025442 106.94781 0.61043769
21.102386 106.86009 0.63677394
23.021877 106.86633 0.61655194
25.015108 107.15421 0.50553316
27.089169 107.15434 0.69676363
29.009298 106.97601 1.1649878
30.362469 106.82304 1.6655958
5.2067237 108.70965 1.2959213
7.0009656 109.05573 0.9473725
8.9481325 109.10119 0.59951174
10.896096 108.84659 0.45207569
12.935847 108.96708 0.47440958
15.064037 108.79575 0.57022864
16.933594 109.10052 0.69824243
19.103731 109.03874 0.63038808
21.235538 108.80275 0.48057705
23.109659 109.04031 0.50043684
25.12155 109.23268 0.82858157
27.026991 108.99688 1.1482899
28.607811 108.51083 1.5445881
7.3311329 110.55837 1.3110837
9.0317307 110.96699 1.0859309
10.922897 111.27554 0.82257247
13.139875 111.06192 0.53243196
15.138528 111.08772 0.49104056
17.215492 111.10535 0.56156707
19.067314 111.07922 0.58448488
21.159313 111.14178 0.69036222
22.958736 111.18939 0.96065593
24.829712 110.90853 1.2470288
26.604408 110.47512 1.5575172
9.467761 112.35906 1.589195
11.199415 112.65825 1.5499418
13.057565 112.69173 1.1812212
15.011471 112.86607 1.0588269
17.046879 112.94672 1.1132066
18.977301 112.82156 1.177238
20.838097 112.62183 1.2660333
22.704361 112.46401 1.4333568
24.525713 112.11118 1.827464
15.036687 114.01433 1.8335371
17.171261 114.00489 1.7354422
9.5610132 1.8317413 3.6507463
10.995756 1.5834997 3.5789788
12.855707 1.5742061 3.378197
14.906699 1.4984363 3.5352728
16.997829 1.5185552 3.5016997
18.883204 1.5206277 3.4389994
20.999046 1.6221224 3.4226253
22.642601 1.7342956 3.4396164
24.123018 1.8524933 3.8138318
7.6046219 3.5838089 3.756932
9.0409489 3.1099806 3.1652772
10.943843 2.744056 2.7871509
13.019735 2.7443576 2.6890483
15.138572 2.559052 2.7677865
16.901203 2.6461003 2.789793
18.965874 2.6517782 2.6865902
21.028522 2.77896 2.6259096
23.082853 2.9821222 2.9705801
24.607307 3.2732685 3.3590815
7.5597043 5.1336098 3.3140583
8.8224068 4.9762073 2.9680762
10.573176 4.581244 2.2505622
23.212658 4.814249 2.456553
24.892574 4.9134116 3.1240976
7.4668279 6.9206185 3.2956679
8.7320452 7.0445437 3.0282695
23.664179 7.2849026 2.4817851
25.028183 6.9326854 3.0097742
26.373159 6.5574088 3.7185373
7.4796944 8.9555092 3.1994255
8.765892 9.0563059 2.9117038
10.23166 9.3220119 2.225956
23.53661 8.9650564 2.4835708
24.947405 8.9847383 3.1266675
26.241888 8.9272079 3.598479
7.563169 11.017183 3.1923873
8.7335787 10.964628 2.9293914
10.237152 11.127811 2.0553517
23.659433 11.12651 2.463712
24.958677 11.092858 3.1000843
26.32375 10.392509 3.8665559
7.5813084 12.866313 3.2451413
8.7874069 13.002592 2.8643284
10.103248 13.180907 2.4018538
23.582909 13.13941 2.5414193
24.967585 13.094724 3.0794773
26.240959 12.527126 3.7105651
7.5848799 14.860685 3.3175409
8.7822514 15.020466 2.9605966
10.224304 14.786535 2.2209184
23.695009 15.131675 2.5963709
24.882189 15.060442 3.1477635
7.5971775 17.045233 3.2468095
8.7383099 16.869394 2.8269086
10.128454 17.041071 2.4138565
23.557507 16.968451 2.435425
24.96151 17.0112 3.140327
7.5115457 19.123648 3.2067606
8.8400831 18.89484 2.8094523
10.637066 19.802639 2.2294102
23.657572 18.901554 2.5021243
24.900711 18.991505 3.0697088
26.199503 18.781822 3.6822715
7.4067492 21.046606 3.2793283
8.8376894 20.977259 2.8932855
10.323468 20.958799 2.2583663
23.541824 20.83506 2.4636345
24.927097 21.044256 3.01472
26.300323 21.02063 3.7078056
7.3760824 22.860924 3.3126035
8.8285599 23.065104 2.8410051
10.254864 23.127565 2.3356202
23.716326 23.017405 2.5716956
24.96702 23.025743 3.0554543
26.24754 22.94458 3.7340026
7.3684978 24.813919 3.2808716
8.893528 25.102375 2.9879475
10.206853 25.43115 2.2520339
23.546396 24.842899 2.4549615
24.989023 24.954279 3.0840313
26.340246 24.935324 3.7526793
7.3552442 26.969334 3.2592041
8.8673906 27.194342 2.8732977
10.119572 27.177206 2.2567024
23.637728 27.118423 2.5133834
24.89678 26.9319 3.032548
26.258266 26.780483 3.5885081
7.4646635 29.085979 3.218863
8.8750877 29.153372 2.8448539
10.178637 28.304752 2.4083765
23.699324 29.011761 2.6228137
24.961281 29.04945 3.0714321
26.26922 28.868351 3.6012371
7.4407449 31.112822 3.2022452
8.9307423 31.058393 2.8800795
10.226425 31.064959 2.1514969
23.583498 30.995998 2.5113215
24.871096 31.061567 3.0398901
26.282452 30.683701 3.7241435
7.3424516 33.014301 3.2706921
8.8558931 33.057014 2.922087
10.309932 33.148273 2.2351329
23.76672 32.980385 2.6299868
24.972059 33.019981 3.0576501
26.313793 32.567581 3.6669586
7.4842148 34.962559 3.1120334
8.8407011 35.023743 2.8399239
10.267099 35.279003 2.1059165
23.692358 35.018276 2.6321576
24.962713 35.023434 3.0116694
26.287022 34.523483 3.6383142
7.5361133 36.72221 3.1330566
8.9086456 37.03447 2.8128881
10.069366 36.65868 2.0763927
23.763538 36.962635 2.6673858
25.007381 37.016705 3.1040967
26.156071 36.666725 3.4783027
7.6324716 38.843208 3.0471554
8.8816261 38.874794 2.8616765
10.277814 38.259369 2.0961146
23.737638 38.917274 2.7648363
24.982355 38.895981 3.1033044
26.099281 38.313808 3.8522093
7.6401424 40.946465 3.0335181
8.8852015 40.875847 2.8268592
10.203399 40.899658 2.0968192
23.622992 40.911049 2.5773396
24.937584 40.847412 3.0106227
26.042173 40.829323 3.442831
7.5404205 43.067959 3.1517432
8.9144869 42.909924 2.7384801
10.723919 43.310795 2.1287947
23.546141 42.89286 2.5976617
24.970984 42.927139 3.0554407
26.061981 42.807281 3.4983203
7.6300912 44.985897 2.9845331
8.8641043 44.94175 2.8238788
23.553976 45.029522 2.5901582
24.991323 44.866787 3.091655
26.277822 45.119755 3.6651566
7.5215259 47.024448 3.0195277
8.8662872 46.889286 2.8446956
10.186194 47.27702 2.3809843
23.622269 47.09483 2.5031161
25.058695 46.885803 3.0971293
26.211697 47.032303 3.6577187
7.5480804 49.223007 3.0490911
8.8777437 48.909069 2.873353
10.093363 49.199097 2.2366202
23.633556 49.092339 2.6201727
25.088434 49.060173 3.1060188
26.233526 49.162842 3.6311595
7.5664725 51.312908 3.0203645
8.8791819 51.041542 2.8178551
10.110381 51.134789 2.2390287
23.602598 50.955704 2.6206865
25.031507 51.023979 3.0728648
26.194561 51.17849 3.6377892
7.5167899 53.036072 3.0234528
8.869997 53.04351 2.8198023
10.14057 53.665924 2.20505
23.559153 52.989799 2.5149226
25.008072 53.017128 3.1183581
26.174358 53.297291 3.5190623
7.5211391 55.07214 3.0851929
8.9115343 54.911667 2.8449707
10.127289 55.393112 2.3879883
23.581972 54.91872 2.5016694
24.987551 55.086086 3.1268201
26.201519 55.351723 3.551173
7.5269985 56.976788 3.1596611
8.8814907 57.009033 2.7255127
10.348974 56.902058 2.2003894
23.516354 56.952671 2.4596448
25.035921 56.932644 3.1988029
26.182526 57.047424 3.5670886
7.5734124 59.013924 3.0465884
8.9341621 59.034908 2.7228427
10.018949 58.42411 2.0775723
23.513102 58.887455 2.4969556
24.888857 58.887142 3.0289249
26.145432 58.757614 3.5101423
7.4037189 61.032387 2.9110491
8.4526901 60.762775 2.970114
23.583218 60.695442 2.0759525
25.031673 60.801834 2.9654601
26.186333 60.95903 3.1821442
7.0631623 62.957462 2.9152174
8.1920586 62.759472 2.7959235
25.250208 62.695255 2.7497904
26.607143 63.128937 3.0615816
5.4498577 65.394821 3.1367879
6.7918873 64.864517 2.8121367
25.605257 64.432663 2.685102
26.90584 64.919861 2.9649522
5.3122988 66.956665 2.9903591
6.3833442 66.669151 2.8835926
25.708176 66.338272 2.2663176
27.028942 66.829178 2.7185969
28.244055 66.930862 3.0823045
3.8625283 69.140137 3.2776659
4.9457073 69.002289 2.8653989
6.0362296 68.544724 2.9379275
27.44504 69.004852 2.7302225
28.7327 69.284752 3.0257726
3.3940158 71.357872 2.9022539
4.4521117 71.07856 2.8795426
22.488554 70.098457 2.7661505
27.653484 70.847023 2.2455482
29.020288 71.230453 2.8639953
30.111197 71.44416 3.107651
3.0787845 73.309929 3.1244123
4.3794208 73.029007 2.9365489
22.93446 73.552147 2.2372842
29.065752 72.944351 2.6132333
30.435684 73.277603 3.1543589
1.8704791 75.09478 3.8737829
2.9958968 75.285683 3.1124568
4.1372337 75.293312 2.3189483
19.574221 75.407677 3.6924565
21.151276 75.639069 2.4374239
23.409344 75.373184 2.5423794
24.566841 74.269211 2.3631871
29.407167 74.990471 2.7066941
30.589945 75.148399 3.1342463
2.8520687 76.996407 2.8660002
19.245108 76.582146 3.0061989
20.567919 76.715904 2.7377529
22.402386 76.276001 2.7756596
24.963932 76.282013 2.8879886
26.117405 77.948326 3.2400179
29.524837 77.014366 2.6610823
30.846907 77.058395 3.0320082
1.793897 78.699036 3.0461693
2.6684213 78.90535 2.7848296
20.172667 79.348618 3.0511372
24.870565 79.337585 2.4587393
26.896473 79.981949 2.790205
29.787218 78.928375 2.8126295
30.925528 78.988693 2.9297049
1.6275843 81.123138 3.0350811
2.7081957 80.803665 2.6262245
20.472004 81.086411 2.5300763
27.034349 81.010315 3.345566
29.854147 80.710297 2.739352
30.921207 80.830299 2.8783538
32.091774 81.85215 2.9899111
1.4695238 83.165726 2.9935825
2.4283185 82.899055 2.8571284
29.900724 82.82061 2.292732
31.018625 82.824173 2.8035812
32.119629 83.488037 3.2239714
1.2056122 85.16349 3.0779843
2.328464 84.950813 2.7642503
15.010416 85.003571 3.4780617
20.77282 85.182785 2.6016662
27.941664 84.523125 2.4624195
31.048681 84.798668 2.8233142
32.203934 84.820953 3.1452246
1.1867602 87.065109 2.9933283
2.3803179 86.80986 2.7776201
22.271078 86.586273 2.2192826
29.969404 86.611572 2.0540028
31.233276 86.926933 2.9255962
32.379997 87.084862 3.0011179
-0.060359955 89.968597 3.2225647
1.0875388 88.980736 3.1154947
2.2383356 88.406265 2.8542762
11.364504 88.270248 2.1611562
26.995602 88.811401 3.077436
31.306517 88.795082 2.7744188
32.505112 89.171951 3.143007
-0.3785553 91.657837 3.6140308
0.92677611 91.11882 3.1504431
2.2666795 90.327408 2.2238986
28.443489 90.827721 2.2024579
31.506992 91.013458 2.6978364
32.732975 91.096321 3.2435586
-0.22680113 93.167305 3.4150207
0.88411903 93.010254 2.9910526
31.760582 92.818405 2.7649164
32.803005 93.016853 3.0869327
-0.29324988 94.867203 3.1610301
0.81398177 94.847893 2.8494806
4.8658137 94.208282 3.5014634
31.5284 94.990074 2.589396
32.87381 94.988693 2.9684374
-0.44594565 96.950752 3.1297531
0.62111145 96.967064 2.9782386
31.929209 96.867775 2.6061244
32.925957 96.98027 2.950474
-0.3930687 99.091019 3.0330849
0.63466519 99.018021 2.9034493
2.0078259 99.76387 2.1505313
31.592739 99.285446 2.6323466
32.930481 99.084435 2.9694541
34.023155 98.769547 3.5796041
-0.28506166 100.86049 2.6465666
0.76483595 101.09945 2.9402423
2.1987906 101.97837 2.1577139
31.667896 101.58456 2.5436974
32.81134 101.01245 3.0072091
-0.11442089 102.50251 3.0148289
1.0468575 102.98338 3.003551
2.2050202 103.30013 2.3073478
5.9415064 103.62354 3.3323519
6.45014 103.43439 2.5065675
29.697842 102.18388 2.9284444
31.369217 103.1995 2.7531707
32.477989 103.14265 3.0501571
1.3804632 104.83629 3.21628
2.5067816 105.02266 2.9237821
7.5591173 105.83012 3.1044931
27.622524 105.88818 3.2630258
29.791327 105.66962 2.2847879
31.013208 105.10455 2.9245908
32.397121 104.38593 3.2735207
1.7038907 106.39214 3.2095926
2.9611745 106.89667 2.9318013
4.2321978 107.3133 2.7799933
9.7342396 107.98836 2.6747842
29.232155 107.24011 2.790102
30.608536 106.73479 3.022779
3.6129408 108.61513 3.1311288
4.8824725 109.00152 2.9201934
6.4413137 109.61375 2.6781516
9.7773418 108.06538 3.072701
25.677353 109.98735 2.2655616
27.368607 109.3013 2.7596636
28.822453 108.88648 3.1097043
30.098488 108.1925 2.8663824
5.4572277 110.43068 3.1395679
7.0132594 111.07896 3.0054648
8.6912537 111.65002 2.8850384
10.842383 111.85948 2.1836443
15.033804 110.45967 2.9574909
16.321348 110.71494 3.3270588
20.994757 110.27271 2.9695785
23.276838 111.79161 2.3943164
25.193668 111.44842 2.9638727
26.791267 110.72659 3.0319397
28.204702 110.22582 3.5307853
7.6054692 112.12979 3.534955
9.2170153 112.49304 3.1207013
10.945261 112.977 2.9902668
12.917693 113.51295 2.8326831
14.844806 113.67553 2.8236687
16.80924 113.68269 2.6866152
18.954203 113.73264 2.878701
21.06204 113.31252 2.9496262
23.036385 112.74678 3.0745459
24.705578 112.34867 3.1173091
13.545364 114.07925 3.3768685
15.194946 114.15588 3.215374
17.040665 114.18024 3.1043196
18.736229 114.12268 3.3091459
7.8056083 1.7308655 5.6293845
9.1371431 1.4506147 5.0948758
10.954636 1.1346893 4.935545
13.055167 1.0559876 4.9368882
15.082834 1.0548265 4.8662043
16.989204 1.0458522 4.8856664
18.991947 1.0399024 4.9740615
20.97175 1.0577788 4.9203558
22.926144 1.2722577 5.0012827
24.497938 1.4985979 5.2620478
7.3203464 3.1632881 5.1637321
8.6768675 2.8525505 4.7486777
10.368501 2.3567581 4.0414271
21.555225 2.0216446 4.0235901
23.736202 2.2446079 4.8027143
25.087751 2.9879851 4.9542198
26.462059 3.2896287 5.3235922
5.9611511 5.4433441 5.1513729
7.0259299 4.9364448 5.0208974
8.5196285 4.4617081 4.4841475
25.355669 4.9935727 4.8752346
26.491219 4.9794531 5.0893989
5.9061966 6.7460022 5.3458004
7.0754008 6.949347 5.0333047
8.1630049 6.0757751 4.6698775
25.452454 6.7678156 4.6766601
26.588352 7.0734568 5.0896769
7.2030568 9.0226259 4.9895787
8.2680826 9.0694284 4.8104496
25.38131 9.0044603 5.0067534
26.38925 9.1552076 5.0001178
7.3070202 11.09176 5.0409718
8.3249388 11.424438 4.8974171
25.412535 11.146303 4.9752407
26.302473 11.25281 5.0378337
7.436687 13.107759 5.0582285
8.3694124 13.166971 5.0159974
25.268326 13.05436 5.0683618
26.232422 12.74541 5.4796677
7.4508901 15.100127 5.0483041
8.4242105 15.001956 5.0412436
25.239271 15.010381 5.0826483
26.162291 14.678465 5.0171885
7.4161248 17.138384 4.9596176
8.4275808 16.940319 5.0150571
25.191086 16.920521 5.1265688
26.218763 16.683605 5.4081259
7.3669982 19.089533 5.0447426
8.3324966 18.949286 4.8836045
25.245396 18.964931 5.01828
26.145901 19.227169 4.9574995
7.289156 20.906193 5.0220203
8.2116604 20.825832 4.5699959
25.32856 21.04784 5.0407414
26.401241 20.926964 4.9527326
5.9427309 22.781879 5.9460316
7.0526342 22.860319 5.0964198
8.2878132 22.809622 4.2782578
25.47912 22.956398 4.8589482
26.544386 22.928867 5.079349
5.8510609 24.624676 5.6058092
7.1011815 24.927799 5.0629444
8.215579 24.712111 4.5713973
25.449038 25.051123 4.9397564
26.569281 24.984844 5.0150871
5.8249426 26.981602 5.7658029
7.0959783 26.925678 4.9927955
8.1924181 26.706327 4.4187155
25.45783 27.120258 5.0296035
26.622522 27.049925 5.1324062
5.8362303 28.592037 5.6565003
7.0704994 29.050276 5.1117711
8.2906027 28.930803 4.3909249
25.558916 29.049156 4.9806881
26.60813 29.010588 5.0787468
5.8392348 30.617529 5.8202186
7.0787616 31.183588 5.014122
8.2584715 31.061005 4.5817523
25.432371 31.216225 4.9574237
26.528099 31.019005 4.9593849
5.9094753 32.421661 5.4754925
7.0704799 33.195976 5.0347176
8.2591171 33.158684 4.9952593
25.39423 33.046089 5.0377817
26.47998 32.878708 5.0475178
7.2524691 34.986355 5.0226588
8.3354301 34.903587 4.8745575
25.266047 35.042042 5.0765195
26.277199 34.955387 4.9817462
7.3288908 36.879963 5.043222
8.3536959 36.878754 5.0220256
25.191946 36.915791 5.0601449
26.216242 37.120277 4.8032522
7.4843802 38.813915 5.0204597
8.4714851 39.073757 4.9019752
25.095512 38.989456 4.9949284
26.164913 39.332588 4.7950039
7.4378586 41.019295 4.8803201
8.4678335 40.973515 4.9657435
25.151674 40.954868 5.0052323
26.18536 40.825493 4.9592543
7.4723315 43.094494 5.0156851
8.3867216 42.914436 4.8838921
25.208885 42.957153 5.0162892
26.237812 43.088875 5.050056
7.1882401 44.993481 4.9933157
8.256875 44.907036 4.8448071
25.221809 45.0317 4.9130902
26.248838 44.991802 4.9734879
7.0741124 46.872929 4.9191046
8.2323694 46.901794 4.7473378
25.387503 47.097904 4.918045
26.446203 47.033325 5.1302447
5.8499308 49.036877 5.8908491
7.0184202 48.986961 4.8793139
8.183691 48.823376 4.6664915
25.37196 49.021587 4.9903355
26.524874 48.931084 4.9835124
5.8218651 50.921608 5.7535906
6.9960742 51.071827 4.9680696
8.1913862 51.164944 4.5629644
25.44482 51.01894 5.0228596
26.49408 50.910492 5.0839982
5.76894 53.495773 5.7867694
7.0699039 53.221363 4.9138746
8.2223358 52.876362 4.5196695
25.340799 52.940186 4.8476
26.531593 52.882427 5.093039
5.7910881 55.031277 5.8161244
7.0207772 55.26133 4.9564524
8.2142839 55.203888 4.5098796
25.393974 54.92141 5.0549388
26.55759 55.029518 5.0559254
5.7839813 57.058285 5.7755041
7.0093369 57.19281 4.9596786
8.315568 57.031597 4.4189582
25.35335 57.031986 4.8944116
26.556307 56.851749 5.1552496
5.836729 58.945988 5.5433898
7.0339646 58.970158 4.9815826
8.2900038 59.011478 4.4365444
25.368183 59.002022 4.8770661
26.499924 59.02441 5.0849733
5.8962927 60.516308 5.421814
7.0207849 60.945774 4.859457
8.3119469 60.988213 4.358439
25.421877 60.947853 4.7968831
26.538363 61.215328 5.0932536
5.8514409 62.743786 5.6265707
6.9054074 62.806004 4.9144907
8.0256472 62.937576 4.8521013
25.603132 62.897388 4.7317333
26.709385 63.05743 4.9952064
5.609086 64.929573 5.2252393
6.579072 64.824554 4.9588404
25.969404 65.185303 4.7689695
26.937759 65.008476 4.9204478
28.158016 65.544312 4.805737
5.139183 67.052216 4.8254347
6.3650761 66.533928 4.632381
27.300335 66.887962 4.8484354
28.251604 67.120193 5.0255084
3.7592723 69.185997 5.0868707
4.7827234 68.918755 4.849381
27.72205 68.659195 4.7396159
28.872864 68.995216 4.8844566
3.5443385 71.252411 5.0048604
4.5451331 70.954659 5.100944
21.974253 70.032608 4.4442806
27.945974 70.363106 4.2329335
29.008131 70.948143 4.9502635
30.137365 71.191437 5.0252171
3.0766714 73.133934 4.9445629
4.2460279 72.331863 4.3765578
29.410141 72.835716 4.9137764
30.452003 73.306847 5.0380225
1.8850214 75.475479 4.6516314
2.8027546 75.124527 5.0360608
19.81632 75.723694 4.0382161
24.132824 75.545876 5.1320138
29.729061 75.0131 4.7263765
30.646004 75.151314 4.9522028
1.7409586 77.26944 4.8132048
2.6952722 76.973984 4.9301081
25.881256 77.120605 4.1784801
26.002758 77.325279 4.2628975
29.8358 76.825546 4.6735888
30.836227 77.033989 4.8752441
1.6383946 78.968834 5.1408229
2.5705714 79.027031 4.834312
29.85074 79.002991 4.3106961
30.972689 78.94062 4.9032536
1.5328658 80.986382 4.9874363
2.5973375 80.957291 4.820055
25.819828 80.3311 4.723937
31.009659 80.871262 4.8885117
32.028976 81.413322 4.8811235
1.4238409 83.119713 4.9321017
2.4546108 82.887604 4.9453611
31.016216 82.729958 5.0282912
32.226612 83.071335 4.6925478
1.2495363 85.162277 4.937428
2.2784441 84.677956 4.9595466
31.305429 84.814903 4.9855051
32.199406 84.746429 4.826015
1.1165679 87.075623 4.9827662
2.1264091 86.798965 4.799334
31.461115 87.048729 4.9071746
32.424274 86.942596 4.9180331
-0.013669968 88.531776 4.1226854
0.97971815 89.139084 5.0122361
8.5808887 88.341789 4.6063585
31.564339 88.964691 4.9638982
32.619003 89.06353 4.8585
-0.17916597 90.899361 5.1417899
0.89343286 91.060303 5.1475363
31.777554 91.047699 4.8813033
32.639767 90.869461 5.0279965
-0.3006115 92.884384 4.9469662
0.68119365 92.953491 5.1624188
5.5195332 92.735703 4.8771048
31.779327 92.944893 4.7866921
32.86021 93.057976 5.0644751
-0.39043966 95.041092 4.9913745
0.63283157 95.017639 4.9660773
31.753834 94.381706 5.7401705
32.885963 95.077492 4.9834666
34.045776 95.361427 4.5255804
-0.46695572 96.975891 5.1268539
0.47312623 96.9599 4.8858485
33.009861 96.960052 4.9022155
34.151852 97.558197 4.5606503
-0.41714701 98.961082 5.0217924
0.45701766 99.028984 4.8522763
33.006966 99.074524 4.952086
34.043938 98.2528 5.7470789
-0.27344969 101.00102 4.7705178
0.72586548 101.17773 5.046453
31.837135 101.51688 5.1427202
32.845341 101.01682 4.9452219
-0.13724041 102.46877 4.5907636
0.9935658 103.17739 5.0172887
2.0549746 103.69421 5.3996058
31.605051 103.31477 4.8532367
32.621098 103.0201 4.9288206
1.3963033 105.0175 4.9247947
2.401283 105.18579 4.960453
31.182674 105.16032 4.9238472
32.25444 104.8281 4.9350376
1.835673 106.55241 5.1794419
2.999212 107.10808 4.8989005
4.2157679 107.7029 4.7456031
29.515947 107.25088 4.9897466
30.697479 106.93365 4.9013071
3.5928533 108.58659 4.804986
4.8344097 109.19711 4.8675437
6.0791001 109.80829 4.9592652
27.539572 109.53246 5.1089301
28.965151 108.82751 4.8878512
30.04698 108.49115 4.5918961
5.3471112 110.36114 4.8824201
7.0509362 111.12461 4.9914703
8.2935638 111.73384 4.9228125
25.327934 111.47618 4.9144855
26.834305 110.82571 4.8737025
28.219017 110.18853 5.1033163
7.5408525 112.07947 5.2869706
9.1345634 112.55511 5.0774341
11.002391 113.27642 4.8207035
12.913636 113.77523 4.8940382
14.029243 113.86318 4.877882
19.408552 113.88072 4.9605136
21.018473 113.65398 4.9197421
22.996975 112.93764 5.0120993
24.772076 112.33722 5.009038
13.54787 114.08552 4.8331351
15.190216 114.20742 5.0698695
17.019741 114.24864 4.9097414
18.882792 114.12286 4.9721541
20.267952 114.02754 4.4698114
7.5642257 1.522316 7.2166128
8.9440432 0.96421927 7.1482596
11.098021 0.3686972 7.0553722
13.072083 0.32927018 6.9963765
14.985289 0.29990679 7.0598707
16.987282 0.32667878 7.0042329
19.061581 0.33053887 7.0619655
20.943693 0.31587777 7.0570188
23.070393 0.57736444 7.0878053
24.909197 1.287915 7.1029944
26.183149 1.9197197 7.2869968
5.7894006 3.8268635 7.200891
6.9947858 2.9835186 7.0309496
25.537615 2.7254806 6.785984
26.610039 3.1529016 7.13096
5.778584 5.1401882 7.2342539
6.7227988 5.0363708 7.0043492
25.846598 4.7923675 6.7930164
26.820919 4.9361033 7.0706267
28.010038 5.2321854 7.5991764
5.7938933 6.6035056 6.8268971
6.8822222 6.9993997 7.0632515
8.1155653 7.6678696 6.9972849
25.678514 7.0556259 6.9458055
26.714041 6.7553382 7.0203772
5.8818073 8.2158661 6.8634534
7.1820874 9.092207 7.0446882
8.3084211 9.3628778 6.8602471
25.470001 9.1335297 6.999537
26.415012 8.7952881 6.8669066
7.350462 11.127823 7.1581955
8.3076735 11.126404 7.0248466
25.347006 11.099911 7.103375
26.21483 10.791102 7.0122995
7.4422541 12.942313 7.1631718
8.3675175 13.10197 7.154048
25.134172 13.135951 7.0147943
26.09264 12.682342 6.8243141
7.5383406 15.012362 7.1506639
8.4229202 14.941835 7.0412016
25.152891 14.915907 7.0969081
26.168158 14.745425 6.5646262
7.5097785 17.059792 7.0906425
8.4596338 16.798307 7.0755711
25.220423 16.911165 7.0407887
26.116688 16.885069 6.909308
7.3360562 19.147753 7.2227893
8.2981758 18.78866 6.9432368
25.298 18.997643 6.9724951
26.169338 19.043056 7.0444541
7.1609001 20.970373 7.0553446
8.0937729 20.859114 7.0003443
25.487183 21.038729 6.9756923
26.409607 21.104364 6.9901772
5.7990503 23.75983 7.0912981
6.930963 22.972126 6.9859948
25.625916 22.802286 7.0291538
26.595285 22.892391 6.8740463
5.7120147 24.885384 7.0038414
6.6107998 24.967171 7.0519094
25.785702 25.112942 6.719512
26.86528 24.847559 7.060854
5.6947169 26.987854 7.0367327
6.6685648 26.971905 7.0605345
25.722477 27.137009 6.5351768
26.836311 26.892481 7.0781255
5.7120786 29.158085 7.1585779
6.7065449 28.949106 6.952908
25.821058 28.870043 6.894197
26.888142 28.997965 7.0686154
28.075035 29.328545 7.8730259
5.7281489 30.86838 6.8209119
6.765029 31.173594 7.0014954
25.677326 31.087709 6.7614655
26.81859 31.019043 6.9519596
5.9448504 32.42775 7.4005585
7.1652045 33.155033 7.0342407
8.2386427 33.795094 6.4593921
25.647097 33.039337 7.0666494
26.481501 32.956257 7.0693274
7.2203736 35.011211 7.0368557
8.16609 34.908314 7.0231581
25.389566 34.882008 7.057744
26.324728 34.854595 6.9747367
7.3253498 36.910133 7.2716608
8.3550968 37.070316 7.0085907
25.227079 36.961216 7.0931692
26.210001 36.961594 6.9594131
7.4971271 38.790089 7.1523585
8.4924088 39.035934 7.0538616
25.154766 39.032925 7.1376147
26.130899 38.847202 6.8514514
7.4970002 40.840885 7.1770597
8.4575148 40.850327 7.0655961
25.133167 40.991661 7.0979171
26.110556 40.864002 6.7281542
7.4016614 43.049088 7.1414084
8.355052 43.021179 7.0626712
25.212328 42.945889 7.0201564
26.185858 43.174828 7.0845432
7.2173843 45.072575 7.0349879
8.2353029 44.945545 7.0769296
25.345516 44.825684 7.0905457
26.332205 45.082787 7.0549645
5.9933119 47.895653 6.4239826
7.0939169 46.940071 6.9623113
8.1331635 46.529198 7.882297
25.571297 46.787518 7.045711
26.442955 47.203388 6.9577351
5.7898746 49.362061 6.8218737
6.8235035 48.931156 6.9735026
25.751553 49.204426 7.1721735
26.745968 49.159924 6.9325786
5.7482729 51.023891 7.0638127
6.6672168 51.201313 6.9244528
25.747831 50.997467 6.6436524
26.800335 51.030819 6.9699178
5.7386622 52.93594 6.9794188
6.6639671 53.210861 6.9241018
25.838751 53.050362 6.7578454
26.804371 52.934002 6.9546547
5.6736693 55.328972 7.0221963
6.7105494 55.172623 6.8487859
25.779093 54.899467 6.6656928
26.764486 54.96088 6.9669638
5.8073063 57.034664 6.9849339
6.7128906 57.079067 6.9172592
25.806267 56.969517 6.8064532
26.818869 57.027786 6.9697452
5.7344513 58.990376 6.9514008
6.7549839 59.070713 6.8837705
25.792578 59.22089 6.6882687
26.745138 59.073338 6.9236445
5.783886 61.190956 7.013979
6.7299924 60.990524 6.8876104
25.800203 60.841129 6.5797162
26.775904 60.929478 6.892324
5.7949405 63.131844 6.9419599
6.7234936 63.048618 6.8515568
25.846096 62.825863 6.9069738
26.720907 62.978241 6.9266081
5.5653338 65.136711 6.8545294
6.5268407 64.907242 6.8202643
26.90012 64.927261 7.0004301
28.161316 65.777573 7.1396775
5.2104025 67.025612 7.0211272
6.1801624 66.930336 7.4552131
27.337881 66.854103 7.0078068
28.507254 67.289902 7.0437155
3.7385046 69.214226 7.0256143
4.9119363 68.883232 6.9402452
27.662111 68.820312 7.1969404
28.66065 69.100716 6.9607339
3.4638944 71.284447 6.9772825
4.6009827 70.57193 6.9454255
19.496559 71.281982 6.4251513
29.097115 70.991943 7.0219469
30.262644 71.327049 7.5149274
1.9622297 73.949493 6.6923494
3.0071442 73.160133 7.1290283
4.0290613 72.334 6.2647929
29.45249 72.883598 6.8643608
30.514864 72.986259 7.0229573
1.8394794 74.74453 7.0116248
2.89903 75.206909 7.1678128
29.617941 75.079987 6.7747083
30.618359 75.071075 6.8869901
1.7609334 76.867661 7.4985013
2.8056993 77.046089 7.0590515
29.786808 77.061867 7.120697
30.694038 77.020828 6.9883513
1.7807198 78.895157 7.1630845
2.7160308 78.878624 6.9593873
29.939533 78.960449 7.5546637
30.784475 78.941132 7.0154419
1.6224434 81.036346 7.1078768
2.5503829 80.797882 6.8215714
31.014198 80.833946 6.9390054
32.023849 81.843315 7.8546391
1.5447191 82.982933 7.0042892
2.3836939 82.748466 6.7290902
31.26873 82.861946 7.0443583
32.175056 83.145844 7.090095
1.3189431 85.113129 6.843226
2.2102523 84.807747 6.7854095
19.468937 84.921814 6.3276286
28.283943 85.203705 6.9513073
31.421444 84.928612 7.0484958
32.313641 85.039398 6.8125062
1.1301366 87.150436 6.9722557
2.1392601 86.58625 7.0661778
26.888187 87.518944 6.5244694
31.481506 87.000824 6.9309521
32.525063 87.256187 6.7750335
-0.06722641 89.83078 6.2123871
0.98049992 89.020775 7.0236816
2.0006571 88.043427 7.6518574
31.569162 89.093422 7.0779099
32.497456 89.012924 7.0547667
-0.19872029 91.308372 6.8815675
0.76330459 90.909439 7.0111194
31.651384 90.886604 6.9820218
32.667137 91.006912 7.0819216
-0.29626226 93.118462 6.7554131
0.69547111 92.935959 7.1231647
31.771326 92.796356 7.1623039
32.813259 93.070427 7.0696378
-0.39331982 94.960129 6.9725647
0.52414817 94.966896 7.0988374
31.685328 94.422974 7.9630265
32.93058 94.8946 7.1594062
-0.48695689 96.980225 7.0984697
0.43085918 96.964508 6.9969273
33.099033 96.856491 6.9780021
34.131386 96.850067 7.317111
-0.44710526 99.057564 7.0032563
0.48330894 99.136322 6.9497695
31.98896 99.88163 6.651515
33.007896 98.988945 6.9843554
34.078934 98.076767 6.7786083
-0.37876928 100.81128 6.8659711
0.6554563 101.17861 7.072237
31.940922 101.34967 7.1535559
32.97036 100.98053 7.1173763
-0.067293644 102.59938 7.0203471
0.90464854 103.11056 6.9789734
2.0724144 103.85338 7.2844429
31.666586 103.13709 6.9312997
32.550964 102.9078 7.0380507
1.382134 104.86756 6.9821787
2.3566837 105.26098 7.0211334
31.107683 105.18353 7.0275898
32.220074 104.73716 6.9860826
1.4687294 106.23529 7.2319713
2.9036608 107.01408 7.0088663
4.2226 107.64411 7.358881
29.595909 107.36472 7.0649638
30.729654 106.8379 7.0327091
3.5201888 108.46494 6.8403268
4.8397684 109.22182 6.9877663
6.1204438 109.80129 7.1456437
27.517437 109.683 6.9790502
28.830399 108.98589 6.8738704
30.115391 108.30216 7.2280755
5.399786 110.46622 6.8352413
6.9947114 111.1284 7.1910148
8.3723335 111.78829 7.2326097
25.427011 111.5123 7.0096531
26.879383 110.77212 7.0296416
28.253056 110.22713 7.114789
7.5995131 112.10821 7.4570231
9.0813961 112.54739 6.9992599
10.851242 113.21725 7.1283588
12.712558 113.7291 6.9084191
14.046992 113.89246 6.823813
19.30208 113.93827 7.4137783
21.02545 113.63993 7.0008812
22.932344 112.96358 6.9409299
24.861994 112.25582 7.0378079
13.613611 114.08237 7.2690301
15.090304 114.19135 7.170753
17.043657 114.24467 6.9373684
18.875721 114.13452 7.0544887
20.40432 114.02959 6.8592482
7.4535179 1.4656546 9.0242357
8.9918184 0.67329204 9.2213001
11.072168 0.11908936 9.0446749
12.980294 0.079381593 9.0179682
14.899527 0.082505897 9.0552988
16.982712 0.070317447 9.0470724
19.09915 0.073751971 8.9890299
20.97533 0.087291442 8.9072037
22.88549 0.24144077 9.0925398
24.967079 1.1669835 9.0481329
26.173151 1.6491076 8.9458666
5.7717724 3.4063127 8.9390669
6.8263288 2.934062 8.9054604
25.656487 2.5388663 9.0242834
26.710623 3.0681124 9.080102
5.7127886 4.9950299 9.1378069
6.6200204 4.9311237 9.056591
25.78997 5.5021 9.0633535
26.866001 4.8714862 9.0713129
5.7022305 6.8194218 9.0613232
6.8913417 6.942935 8.952178
8.1653566 7.4547272 9.1724558
25.630032 7.2256279 8.9739971
26.708662 6.8327155 8.9652281
5.9615154 8.1531334 8.9428911
7.1840048 9.0142174 8.9448557
8.2510653 9.4046822 9.0569935
25.430349 9.1428051 9.0122967
26.45314 8.7674952 9.0789404
7.2948737 11.195898 9.1251583
8.2826281 11.175282 9.0227213
25.318874 11.107714 9.0027857
26.289827 11.102942 9.0947943
7.4323316 13.085547 9.0876808
8.4196596 13.108111 9.0286741
25.129507 12.992571 9.0274677
26.164053 13.250987 8.9232779
7.397779 15.038706 9.0707407
8.4176636 15.013615 9.0983028
25.167517 14.937292 9.0983267
26.132029 15.151793 9.3097172
7.4732695 17.045835 9.1889915
8.4305162 17.073906 9.1070957
25.208776 16.957081 9.1147747
26.137718 16.69766 9.2815657
7.389626 19.040922 9.0119371
8.2980862 18.861246 9.0666523
25.270391 18.883041 9.0657635
26.200972 18.982922 9.0183125
7.132021 20.932392 9.0242195
8.1703243 20.981113 9.2493687
25.356655 20.966055 9.0391273
26.365986 20.964832 9.0793104
5.7866511 23.757851 8.8318253
6.9187622 22.829967 8.9829464
25.661171 22.997934 8.8058443
26.66716 22.930305 8.9910469
5.6228957 25.122347 9.0560436
6.6478305 24.806664 9.0601444
25.877657 25.028799 8.6660719
26.847382 24.833944 9.0844126
5.5848651 26.91254 9.04074
6.5519285 26.876656 8.9281101
25.945719 27.146679 8.2546368
26.954758 26.9032 8.9890804
5.598783 29.082663 9.0304708
6.6009045 28.999149 8.9213285
25.871637 28.674631 9.0228548
26.970818 29.014101 9.0992041
5.6523228 30.625835 9.1131773
6.8059936 31.186163 9.0209827
25.696848 31.201313 9.0250301
26.795811 30.921484 9.0034304
28.082989 30.289276 9.8368816
7.0148301 33.158989 9.0812874
8.2198009 33.584778 8.6807652
25.557438 32.922279 9.0468073
26.598082 32.827877 8.9031563
7.2455087 34.909874 9.1083603
8.3496122 35.167381 9.0944262
25.274994 34.937645 8.9543104
26.42116 34.753338 9.0219326
7.2746558 36.809258 9.1896467
8.3497152 36.952351 9.0780449
25.258219 36.965939 9.0510378
26.191282 37.041866 9.1870775
7.4293675 38.786366 9.2102718
8.4373779 39.018211 8.9525833
25.212839 39.040531 9.2125139
26.163973 39.150761 8.9071417
7.4642758 41.028297 9.2519979
8.46943 40.89381 9.2034903
25.049608 40.898129 9.20047
26.149092 41.327976 9.1314726
7.4005132 42.944099 9.2024679
8.3439159 42.738926 9.0566721
25.191448 42.715679 9.2220249
26.236757 43.36655 9.1983204
7.2474594 45.045952 9.0908604
8.2427607 44.72105 9.265399
25.372751 44.817619 9.0760956
26.35704 45.259769 9.1022711
7.0495205 47.040203 9.1504669
8.1293678 46.75605 8.5805473
25.58592 46.966049 8.9220734
26.45841 47.212402 9.0450888
5.7631125 49.116074 8.8143415
6.7857327 48.862988 9.0201693
25.83073 48.862556 8.6266108
26.917486 49.180927 9.0087824
5.6097269 50.926804 9.0416536
6.6009603 50.910656 9.0744152
25.942545 51.231529 8.2489405
26.944872 50.845345 8.9747839
5.5440712 53.055676 8.9993429
6.5455079 53.016182 8.9303913
25.94381 53.08453 8.2512121
26.926945 52.916504 9.0061903
5.5525804 54.915588 9.2345705
6.6244874 55.114223 8.9270897
25.944454 54.937386 8.2523642
26.925697 55.018341 8.9814053
5.5363927 57.129196 9.1333542
6.6653824 56.97921 9.0705452
25.945091 56.790222 8.2535
26.929653 57.056046 8.9507589
5.5525007 59.097221 9.2190619
6.6378584 59.015263 9.0705357
25.946362 58.643108 8.2557716
26.944666 59.011818 8.8815565
5.5075169 60.997627 9.0142059
6.5470233 60.851303 9.1594372
25.946999 60.495888 8.2569075
26.959017 60.968445 8.9138308
5.5163999 63.083931 9.1798306
6.665349 62.958008 9.1443396
25.973751 62.311943 8.3419514
26.973539 62.890018 8.9133053
5.5079155 65.062622 9.1571074
6.5828128 64.843361 9.0700808
25.96941 64.199829 8.3146896
26.922792 64.841721 8.9072361
28.145365 65.656624 8.7023726
5.1975965 67.052216 9.0767689
6.2569199 66.353455 8.8446283
27.306295 66.748039 9.2010822
28.428413 67.236198 9.480114
3.7300589 69.325294 8.7924328
4.8232069 68.883438 9.1085119
27.642553 68.346405 9.3620052
28.817347 69.109009 9.2000961
3.489845 71.15519 9.1981487
4.5402317 71.004547 9.1363401
17.22294 71.641472 8.6461382
22.765022 71.93161 9.0074329
24.73682 71.612122 9.5343657
29.090725 70.992981 9.1266804
30.241068 71.283646 9.0690737
2.9934688 73.21743 9.180954
4.1462426 72.728188 8.8269663
29.390984 72.781693 9.1304531
30.388853 72.997162 9.1052675
1.8808053 75.094078 8.2515965
2.8816571 75.151245 9.086647
29.709158 74.706268 9.0551472
30.620802 74.897476 9.1566572
1.6938919 77.1455 8.6943884
2.7977366 76.940582 9.1464119
21.274149 77.041222 8.7398252
29.885851 76.56694 8.9121742
30.772255 77.06395 9.0299397
1.5674307 79.012711 9.0990381
2.6480961 78.870033 9.1325674
30.981747 78.997108 9.0964136
1.4858953 80.95443 9.3084545
2.5588958 80.84288 9.149682
31.100368 80.896843 8.9518585
32.146633 81.578697 9.1544752
1.4588524 82.755447 9.0916853
2.3899148 82.946388 8.8091021
31.163034 82.820557 8.9580288
32.236023 83.08046 8.8937759
1.3261386 85.00206 8.8579502
2.2605078 84.839584 9.0398169
31.243351 84.794907 9.0640297
32.264969 85.019661 8.8021011
1.1398472 87.107246 9.0616531
2.1099997 87.09137 8.5913439
31.425781 86.998795 9.0433626
32.555149 87.153961 8.8274603
0.95172793 89.190414 9.03895
2.0096331 88.9207 8.7271309
31.577854 88.943893 9.1245413
32.524036 89.043968 9.0801039
-0.17076187 91.204971 9.1928301
0.90283769 91.020874 8.997961
31.716503 91.055214 9.0542049
32.657253 91.133377 9.029809
-0.23488969 93.099197 8.9103556
0.66495645 92.881271 9.1513748
31.794136 92.92971 9.0758905
32.781425 93.252495 9.1190853
-0.34305128 95.06739 8.9767618
0.63839084 94.892914 9.0803213
31.755665 94.348984 9.8652649
32.903656 95.050903 9.1717138
-0.43169543 96.824013 9.1434927
0.5041548 96.877899 9.0307579
32.993011 97.021507 9.1247997
34.041344 96.675117 9.0151672
-0.43111539 98.805229 8.9404545
0.55540138 99.138603 9.0007801
33.064316 99.108574 9.1057014
34.098747 98.121017 8.1857052
-0.32036287 101.02248 8.7881413
0.67960221 101.25299 9.1256905
31.87397 101.55228 9.2521973
32.841866 101.08076 9.1804171
-0.17546844 102.3885 9.0549393
0.92368507 103.19123 8.9505339
2.0240707 103.53094 8.0832825
31.575449 103.33143 9.0167284
32.640018 102.9578 9.1238661
1.3832335 105.01038 9.1234417
2.456214 105.25014 9.019455
6.984889 105.28334 9.2064228
31.223495 105.184 9.1319923
32.241482 104.49637 8.7387629
1.6560158 106.33219 9.2101898
2.9324148 107.02871 9.1192636
4.2188692 107.8445 8.7937899
29.487982 107.26662 9.070302
30.640076 106.98404 9.0446949
3.5451314 108.58511 8.960412
4.8437605 109.2208 8.9637709
6.0814595 109.85336 9.7406597
27.537535 109.62603 8.9337282
28.82626 108.96523 9.0149183
30.249662 108.20576 8.562604
5.5185766 110.47215 9.1715078
6.9701014 111.09646 9.1596756
8.3660412 111.77665 9.1022749
25.300554 111.54852 9.056015
26.896255 110.76091 9.1272392
28.281742 110.14183 9.5717039
7.8094769 112.16893 8.7168999
9.2127533 112.59334 9.1233816
11.058853 113.27785 8.9645538
12.860668 113.78394 9.1091852
14.042503 113.91275 9.4409027
19.397552 113.89423 9.1470737
21.10033 113.58846 9.080987
23.12044 112.93277 8.9756451
24.634407 112.41195 9.075263
13.735611 114.12549 9.112359
15.066998 114.19481 8.9418449
17.014206 114.2429 9.0527496
18.867102 114.13438 9.047452
20.323578 114.03915 9.0137024
7.5613465 1.4841635 10.94171
9.1254816 0.8536005 11.064579
11.072327 0.29191378 10.997703
13.087703 0.29070029 11.06133
15.100784 0.26523435 10.988046
17.118931 0.31035545 11.078631
19.08005 0.26125899 10.935738
21.000122 0.31311396 11.0924
22.993008 0.48262382 10.977424
24.858912 1.2193094 10.901456
26.158003 1.661087 10.785347
5.9087601 3.3371596 10.770465
6.9541616 2.9892361 10.996059
8.2799034 2.1476517 11.55857
25.615824 2.7648261 11.221674
26.67662 3.2142491 10.925413
5.6365528 5.0203547 10.932074
6.71526 4.9669962 10.85246
25.635914 5.0012054 11.763783
26.815891 5.0209274 10.965691
5.7976909 6.5883999 10.667798
6.8238311 6.9935231 10.89973
8.0878019 6.942997 11.239702
25.597727 7.0632782 11.009591
26.683443 6.8798218 11.018986
7.1227074 8.9612761 10.971906
8.2720547 9.2830505 10.905317
25.361635 9.0265236 11.008172
26.376511 8.9371443 10.925547
7.343523 11.071327 11.038115
8.3546009 11.078104 10.929074
25.187286 11.059075 10.929495
26.325909 10.942413 10.995731
7.4754896 13.02245 10.934745
8.3861771 13.10409 10.991761
25.227827 13.056941 10.953356
26.158133 13.063558 11.002151
7.3909612 14.98096 11.122194
8.3733854 15.050857 11.016477
25.153362 14.859925 11.043877
26.142164 15.064777 11.50544
7.45539 16.954683 11.042789
8.3877335 17.10528 11.095117
25.238712 16.877748 11.017251
26.192572 17.164932 11.216886
7.3151898 19.115692 10.988155
8.2240248 18.938286 11.059115
25.223915 19.030807 11.043207
26.231226 19.252073 11.135824
7.1440587 21.099213 10.981837
8.1727734 20.334179 10.690924
25.393982 20.962072 10.883818
26.396286 21.210657 11.07342
5.8283782 23.766064 10.950113
6.943048 22.998388 10.980042
25.738129 22.839785 10.911121
26.681093 22.907047 11.007516
5.7026348 25.26293 10.912255
6.6918454 25.03578 11.018452
25.685831 24.958269 11.130033
26.905245 24.876923 10.874191
5.6713572 27.220636 10.956237
6.732595 27.109831 11.068989
25.848866 27.05896 11.308887
26.872578 26.947439 10.931958
5.6393266 28.882719 10.895216
6.7139077 29.029005 11.155953
25.720572 28.783815 11.389481
26.875284 29.003708 10.978165
5.7268982 30.970718 11.011506
6.7407031 31.11541 11.08955
25.742514 31.094446 11.004951
26.862793 31.003611 11.025981
5.9355726 32.644302 10.987467
7.1031508 33.017841 11.004527
8.1021891 33.643967 11.809154
25.545404 33.044712 10.900961
26.613491 32.887455 10.937867
7.2421532 35.034924 11.04659
8.3111086 35.019444 10.790401
25.380274 34.950264 10.921978
26.380239 34.741417 11.133113
7.3207221 36.985657 11.128464
8.3207502 36.906483 11.156462
25.18285 36.913532 11.082269
26.241295 36.730206 11.075917
7.4846234 38.905247 11.016668
8.4718637 38.842464 10.830972
25.127117 38.958591 11.129878
26.201876 38.903305 10.834142
7.4705725 41.009911 11.034625
8.399581 40.891392 11.063181
25.183825 40.944504 11.001257
26.17844 40.870708 11.181082
7.3570733 43.102962 11.110473
8.3826056 43.029072 10.977217
25.177475 42.859501 11.188375
26.174446 43.36668 11.094023
7.2461081 45.124714 11.136532
8.2577887 45.165619 11.232099
25.308361 44.894966 10.86637
26.413504 45.329704 11.262185
5.9419279 47.873203 10.700131
7.0069742 46.965324 11.183198
8.0979156 46.323257 10.769434
25.501587 46.972584 10.885224
26.480011 47.222244 11.132956
5.8088503 49.32048 10.720945
6.8675523 49.019817 11.208842
25.686007 48.726891 11.292836
26.889971 49.223003 11.014081
5.6603947 51.039108 10.836843
6.825964 51.023884 11.085455
25.79458 50.75264 11.262901
26.954365 51.104717 11.035919
5.7389202 52.926872 10.783362
6.9331307 52.942276 11.206168
25.799242 52.800961 11.44606
26.91894 52.994427 11.138478
5.6938024 54.977642 10.823968
6.8172102 55.05027 11.206731
25.789928 54.863094 11.46135
26.979401 55.012127 11.106878
5.7088599 57.037163 10.795378
6.9027967 57.043129 11.27415
25.781595 57.228344 11.49427
26.954084 57.019566 11.061816
5.7223058 58.876846 10.873204
6.8652883 59.025944 11.259721
25.831532 58.938183 11.470605
26.943333 59.035572 11.086303
5.7477822 60.840816 10.950426
6.8423228 61.112843 11.281382
25.818077 60.943302 11.546538
26.920645 61.105099 11.100041
5.8299122 62.81583 10.791467
6.7645655 62.991306 11.322032
25.823936 63.073719 11.528464
26.941021 62.952332 11.150053
5.6937308 64.9814 10.999563
6.7924151 64.919434 11.290315
25.831688 64.961021 11.62887
27.066656 64.930389 11.120282
28.21106 65.766296 10.118046
5.1504378 66.976784 10.964941
6.3354278 66.668541 11.224587
27.270456 66.965599 11.157843
28.353161 66.902832 10.804515
3.8160031 69.809196 10.994983
4.9987721 68.897278 11.068992
6.3240767 68.182678 11.702704
27.669607 68.899292 10.963939
28.631239 69.162483 11.124481
3.407726 71.249809 10.695282
4.5000367 71.135437 11.318842
17.114389 71.80188 11.816757
19.624672 70.060692 11.076452
22.709011 71.784973 11.789901
27.878803 70.982025 11.910152
29.001715 71.001236 11.262479
30.262274 71.500694 11.120175
1.9437323 73.958237 10.977019
3.0323009 73.266983 11.18191
4.2628512 72.791672 11.27327
29.485556 72.878174 11.054173
30.525602 73.169289 10.854166
1.9548912 75.999687 11.150034
3.0642262 75.082214 11.121187
4.0469055 74.709885 11.059526
17.172831 74.691658 11.097708
22.744991 74.323433 11.259315
29.59057 74.941444 10.736475
30.567278 75.13768 10.954156
1.8881336 76.876068 10.892373
2.8940916 77.094757 11.14302
29.663977 76.825165 11.013737
30.591002 76.971527 10.914483
1.737108 79.213036 10.970827
2.6919582 78.982239 11.10113
29.766996 78.639229 11.377534
30.828686 78.939529 11.042836
1.4110245 81.141685 10.964233
2.5773392 80.91713 11.036675
