# .PCD v0.7 - Point Cloud Data file format
VERSION 0.7
FIELDS x y z
SIZE 4 4 4
TYPE F F F
COUNT 1 1 1
WIDTH 323
HEIGHT 1
VIEWPOINT 0 0 0 1 0 0 0
POINTS 323
DATA ascii
-19.358849 1.1338128 -19.379942
-16.504499 0.88870144 -19.609276
-13.505678 0.88668758 -19.608864
-10.493713 0.88352811 -19.603695
-7.4866285 0.88959181 -19.600964
-4.4844642 0.88069534 -19.591181
-1.3501221 0.98565334 -19.513296
0.056636829 1.4935963 -19.041487
-19.492672 4.4792638 -19.518896
-16.506781 4.4897361 -20.012354
-13.504815 4.4818592 -20.007757
-10.496671 4.4864559 -20.001678
-7.4793801 4.481802 -19.996798
-4.4806747 4.4839139 -19.990932
-1.2272561 4.4857187 -19.788956
0.059879217 4.4844928 -19.040819
-19.489508 7.4861569 -19.516697
-16.513754 7.483674 -20.012402
-13.51809 7.4937639 -20.007118
-10.503233 7.4910898 -20.001591
-7.487905 7.4944067 -19.996639
-4.4844007 7.4895921 -19.989521
-1.2206475 7.4906988 -19.786551
0.061969288 7.4921246 -19.042561
-19.4977 10.494747 -19.522425
-16.514763 10.479401 -20.01141
-13.505904 10.491347 -20.006697
-10.491361 10.486759 -20.000221
-7.480886 10.494774 -19.9967
-4.4814224 10.483018 -19.989048
-1.2133757 10.493496 -19.781263
0.06116857 10.488009 -19.054703
-19.490522 13.504555 -19.519548
-16.513041 13.508241 -20.01157
-13.515548 13.493253 -20.005945
-10.504502 13.505057 -20.00033
-7.4907165 13.498886 -19.995125
-4.4872537 13.494853 -19.988853
-1.2191734 13.504027 -19.782722
0.061736476 13.488837 -19.045547
-19.492846 16.502937 -19.513765
-16.509953 16.510065 -20.010044
-13.499413 16.509176 -20.005466
-10.496045 16.507664 -19.999735
-7.4782319 16.514032 -19.99464
-4.4790311 16.495039 -19.989389
-1.2144483 16.507784 -19.773409
0.06023645 16.48037 -19.046061
-19.310106 19.326422 -19.338203
-16.506296 19.51339 -19.514334
-13.512805 19.505445 -19.513258
-10.494333 19.507725 -19.510424
-7.4931064 19.505836 -19.507895
-4.4899616 19.509335 -19.494709
-1.3666198 19.438475 -19.433798
0.055663347 19.004242 -19.038628
-19.59413 0.90233958 -16.505972
-16.5082 0.0091851298 -16.512259
-13.494758 0.0093632927 -16.518286
-10.48157 0.0094430503 -16.506357
-7.4881377 0.0094239097 -16.514967
-4.486146 0.0091913315 -16.516634
-1.0895238 0.43138459 -16.498491
0.058525328 1.463177 -16.513891
-19.989367 4.4911337 -16.513491
-0.059227929 4.4908676 -16.485001
0.06063471 4.4901042 -16.506575
-19.989168 7.4974484 -16.506512
-0.059939712 7.5064502 -16.48608
0.061187714 7.4960976 -16.521616
-19.987423 10.494599 -16.514137
-0.059790295 10.51845 -16.482002
0.062301621 10.478292 -16.519829
-19.987785 13.502268 -16.51078
-0.058691636 13.514588 -16.500095
0.061405726 13.500919 -16.516962
-19.987377 16.510267 -16.512508
-0.057343304 16.514101 -16.477381
0.061305195 16.50947 -16.51346
-19.497797 19.507229 -16.510118
-16.514238 20.009298 -16.509132
-13.497473 20.009354 -16.521235
-10.485242 20.009291 -16.502342
-7.4941525 20.009417 -16.520073
-4.4894314 20.009228 -16.511532
-1.1685138 19.784941 -16.504038
0.058536973 19.053373 -16.516653
-19.595587 0.88886636 -13.510918
-16.50548 0.0093332641 -13.508356
-13.501041 0.009438769 -13.510855
-10.490896 0.0094159991 -13.505168
-7.4878449 0.0094896667 -13.510732
-4.4812388 0.0093515059 -13.509549
-1.0524687 0.46889985 -13.505733
0.059365507 1.4353857 -13.521744
-19.994432 4.484313 -13.499554
-0.058427025 4.4934621 -13.482453
0.060865417 4.484797 -13.51651
-19.994209 7.4954824 -13.498548
-0.059352528 7.4963064 -13.485331
0.062716916 7.4872136 -13.530088
-19.994387 10.499898 -13.504454
-0.058228426 10.502534 -13.48705
0.06263613 10.489402 -13.517246
-19.992863 13.515575 -13.506154
-0.058167476 13.514758 -13.493658
0.062965967 13.506289 -13.529869
-19.993061 16.50696 -13.502775
-0.056756232 16.511066 -13.479043
0.061293297 16.502462 -13.518738
-19.495497 19.510798 -13.50949
-16.505766 20.009472 -13.509658
-13.501429 20.009495 -13.510855
-10.489539 20.009239 -13.501269
-7.4838166 20.009499 -13.513941
-4.4822521 20.009418 -13.508904
-1.136497 19.764311 -13.509047
0.060738277 19.05267 -13.522269
-19.597359 0.88714355 -10.498813
-16.505623 0.0093086939 -10.494936
-13.499485 0.0094096484 -10.500841
-10.49497 0.0095854551 -10.493233
-7.4940009 0.0095225377 -10.498484
-4.4849153 0.009332641 -10.498911
-1.0196782 0.50079632 -10.488177
0.060177099 1.4480263 -10.521135
-20.000282 4.491972 -10.501901
-0.05812655 4.4957204 -10.467742
0.06274195 4.4891992 -10.527021
-19.99935 7.5016999 -10.509792
-0.058981415 7.5024724 -10.478412
0.063922368 7.499402 -10.517965
-19.998276 10.496854 -10.503639
-0.058446702 10.503853 -10.476376
0.063918546 10.495999 -10.514817
-19.998804 13.501191 -10.507081
-0.058155488 13.513261 -10.468232
0.064532712 13.492166 -10.517984
-19.997919 16.510918 -10.498553
-0.05661533 16.512154 -10.467867
0.063847996 16.497671 -10.525963
-19.500893 19.511202 -10.500041
-16.503077 20.009254 -10.504975
-13.495211 20.009302 -10.502351
-10.490362 20.009315 -10.495136
-7.4827194 20.009447 -10.501617
-4.4839683 20.00935 -10.508388
-1.1094874 19.74387 -10.492676
0.061829787 19.049734 -10.53021
-19.603897 0.88365084 -7.4885297
-16.501568 0.0093264338 -7.4921694
-13.49776 0.0094683077 -7.4908848
-10.495831 0.0094238622 -7.501761
-7.4930129 0.009554849 -7.4933052
-4.4876657 0.0093603851 -7.4945321
-0.98975807 0.52702373 -7.4888487
0.061257675 1.4439489 -7.5082912
-20.005592 4.4777594 -7.4948297
-0.058503035 4.4788909 -7.4689269
0.062775657 4.4713855 -7.5280447
-20.005081 7.4956288 -7.5007353
-0.059356406 7.4972734 -7.4721475
0.063897647 7.5049877 -7.5018134
-20.005033 10.501978 -7.4945483
-0.058229357 10.511392 -7.4618301
0.065601945 10.499151 -7.5216346
-20.004171 13.511358 -7.4954553
-0.058654409 13.515945 -7.4677806
0.064483717 13.500531 -7.5074749
-20.003504 16.50498 -7.4910598
-0.056993555 16.514856 -7.4755278
0.06410531 16.50358 -7.5217972
-19.509556 19.507929 -7.4926896
-16.504961 20.00946 -7.5009036
-13.500826 20.009426 -7.4900255
-10.492496 20.009205 -7.5064068
-7.4844546 20.009329 -7.4986372
-4.4837632 20.009518 -7.4981799
-1.0838335 19.728645 -7.4910707
0.063115254 19.03904 -7.5292826
-19.603914 0.88706917 -4.4901924
-16.502344 0.0092170117 -4.4956932
-13.498111 0.0093737105 -4.4873195
-10.484071 0.0094574196 -4.4943347
-7.4917722 0.0094265714 -4.4873052
-4.4852953 0.0092552332 -4.4865065
-0.95872337 0.56809771 -4.4906015
0.06123127 1.4441023 -4.5251675
-20.011053 4.4911747 -4.4881377
-0.057760332 4.4898739 -4.4663315
0.062388089 4.4911003 -4.5345025
-20.010365 7.5060024 -4.5046816
-0.057936043 7.4935689 -4.4572258
0.064364381 7.50249 -4.509768
-20.009584 10.499622 -4.5040555
-0.058264624 10.501437 -4.4570394
0.065509282 10.488854 -4.5324988
-20.009642 13.504164 -4.5018158
-0.057600416 13.515834 -4.4589362
0.064965472 13.492167 -4.5324969
-20.008986 16.507795 -4.4906793
-0.056921724 16.520639 -4.4794927
0.064831704 16.48797 -4.5301065
-19.504992 19.513855 -4.4885516
-16.503767 20.009344 -4.4913869
-13.497836 20.009392 -4.4818764
-10.48763 20.009472 -4.4941607
-7.4992251 20.009485 -4.4867659
-4.4894772 20.009192 -4.4805079
-1.0642308 19.713722 -4.489419
0.063024938 19.041262 -4.5260782
-19.484079 1.0349859 -1.2410419
-16.518936 0.56705666 -0.96420401
-13.511744 0.5390889 -0.98942858
-10.49973 0.50411129 -1.0162518
-7.489686 0.47981298 -1.0494771
-4.4883399 0.43375415 -1.0784367
-1.0643896 0.76652378 -1.25643
0.060609072 1.4633554 -1.5528845
-19.713993 4.4891763 -1.0745814
-16.542374 4.48915 -0.057500251
-13.528966 4.4946976 -0.058489703
-10.518453 4.4928455 -0.058115151
-7.5135808 4.4892125 -0.058476444
-4.5114789 4.487051 -0.057447817
-0.5934248 4.4939437 -0.97301745
0.063696742 4.4793777 -1.5276982
-19.700638 7.4855676 -1.0650991
-16.523195 7.4888 -0.057215359
-13.520307 7.4909725 -0.058658782
-10.50748 7.4896441 -0.058396719
-7.5107198 7.4830666 -0.0586164
-4.5150151 7.482513 -0.057917781
-0.59831381 7.4850531 -0.95800471
0.064776808 7.4955449 -1.523212
-19.700514 10.489841 -1.0638329
-16.516729 10.490777 -0.056839038
-13.537195 10.494004 -0.057447568
-10.527084 10.495722 -0.057536479
-7.5060558 10.485824 -0.057964612
-4.5055923 10.491096 -0.056590989
-0.6085583 10.496206 -0.95929825
0.066076316 10.48344 -1.521224
-19.696301 13.500908 -1.0577903
-16.526663 13.507715 -0.056168322
-13.525202 13.499656 -0.057420094
-10.50448 13.50211 -0.056195524
-7.4975562 13.505449 -0.057182584
-4.5025892 13.514787 -0.056236476
-0.60796762 13.509586 -0.94544816
0.065717123 13.503244 -1.5231112
-19.698156 16.504087 -1.0586838
-16.546663 16.503534 -0.055206712
-13.53402 16.502739 -0.055833381
-10.518343 16.51693 -0.055683319
-7.5008345 16.527828 -0.056019213
-4.502059 16.51092 -0.054247238
-0.60731226 16.511448 -0.96822965
0.065127634 16.503868 -1.5334564
-19.408482 19.407146 -1.2627565
-16.514273 19.700989 -1.0588753
-13.511301 19.713049 -1.0802512
-10.49708 19.735039 -1.0986292
-7.4936562 19.750538 -1.1300482
-4.4871697 19.774879 -1.151275
-1.1420313 19.57938 -1.2850001
0.064200945 19.030651 -1.5685985
-19.044676 1.4382063 0.057153348
-16.478142 1.4253596 0.05920545
-13.451261 1.4245316 0.058907304
-10.457996 1.4229068 0.058792941
-7.466229 1.4298537 0.058130715
-4.4792857 1.4352591 0.058478568
-1.4997275 1.4725031 0.056238949
0.061810784 1.3729488 0.066904068
-19.061239 4.4697814 0.058426682
-16.484388 4.4758983 0.060152948
-13.476324 4.4700003 0.059850086
-10.482123 4.4774761 0.059785359
-7.4903779 4.4757819 0.059207808
-4.4805512 4.4872632 0.059747797
-1.4570251 4.4749618 0.059256189
0.058009427 4.4377475 0.072266057
-19.054125 7.4941645 0.061946355
-16.464823 7.49334 0.062792689
-13.461673 7.4869895 0.06238855
-10.469427 7.5046635 0.061815128
-7.4737029 7.4926558 0.061893724
-4.4836712 7.4923487 0.061508693
-1.4774201 7.4859047 0.060787357
0.060441311 7.5018587 0.068436079
-19.054855 10.492086 0.062188424
-16.469408 10.474226 0.063918009
-13.457273 10.48903 0.063815571
-10.488126 10.485736 0.063858695
-7.4836326 10.484633 0.061524257
-4.4872127 10.483366 0.062702626
-1.4544557 10.478575 0.061013605
0.055815738 10.58336 0.082450628
-19.06926 13.496465 0.062827013
-16.49086 13.489207 0.063957721
-13.457949 13.497721 0.062913641
-10.473625 13.493769 0.062911361
-7.4910131 13.491889 0.061996587
-4.4886031 13.50326 0.061947133
-1.4773623 13.491677 0.061304633
0.071050711 13.515092 0.071935184
-19.049921 16.480167 0.06327536
-16.462227 16.505175 0.064586245
-13.45959 16.504253 0.064255878
-10.483448 16.498154 0.063653223
-7.4861341 16.502401 0.062255532
-4.4704542 16.49358 0.061984226
-1.4555042 16.49897 0.060613029
0.062640615 16.58404 0.075913914
-19.034956 19.027763 0.062941574
-16.482668 19.060825 0.062940925
-13.462016 19.051491 0.062049963
-10.460318 19.054478 0.061690517
-7.4578218 19.05724 0.05966172
-4.483613 19.052191 0.059999675
-1.495963 19.037283 0.056698572
0.077145852 19.145443 0.068295605
