# .PCD v0.7 - Point Cloud Data file format
VERSION 0.7
FIELDS x y z normal_x normal_y normal_z
SIZE 4 4 4 4 4 4
TYPE F F F F F F
COUNT 1 1 1 1 1 1
WIDTH 588
HEIGHT 1
VIEWPOINT 0 0 0 1 0 0 0
POINTS 588
DATA ascii
13.543213 4.6761665 -0.21758099 0.209391158 0.4126639941 0.8864895775
17.378393 4.6775618 -0.30325371 0.1628329354 -0.42009023 -0.8927539604
20.184834 4.7926483 -0.21480703 -0.3449565941 0.3763806736 0.859850299
12.815953 7.6291299 -0.42523435 0.3400073633 0.2266812647 0.9126941422
17.537382 7.6110091 -0.44889769 -0.1008162093 0.230881102 0.9677448056
21.252174 7.7354174 -0.43079346 -0.4206056616 0.154170229 0.8940483309
9.9073696 14.957855 -0.43887138 0.4545077093 0.01934766377 0.8905326553
12.665303 12.504947 -0.44801563 0.3565411569 0.05009996162 0.9329353661
17.453176 12.552185 -0.4660483 -0.1281645928 0.03095001255 0.9912698593
21.377625 12.589295 -0.42120805 -0.4931535885 0.01102680765 0.8698723744
12.600872 17.500406 -0.43925527 0.3344979218 0.0166541435 0.9422493193
17.486126 17.514376 -0.47589064 -0.1881993546 0.001690947581 0.9821293925
21.391594 17.439232 -0.40914595 -0.5081009126 0.003380540954 0.8612909117
12.632935 22.445139 -0.4475069 0.269469989 0.03957496487 0.962195275
17.434574 22.436815 -0.46511155 -0.09263286605 -0.004279619593 0.9956911353
21.364882 22.392015 -0.40585506 -0.4210077382 0.05503852877 0.9053856884
9.9929047 26.98255 -0.153759 -0.4336065863 -0.01583518475 -0.9009631376
12.625265 27.50169 -0.45349616 0.3430924226 0.01333827416 0.9392069421
17.366623 27.416399 -0.47320506 -0.09138950891 8.492166727e-05 0.995815219
21.339897 27.53055 -0.40937206 -0.3667961333 -0.01024729265 0.9302449084
9.8526096 32.95047 -0.10010672 -0.4370686864 0.02086217031 -0.8991861505
12.634349 32.563591 -0.46952045 0.2691222046 -0.02849423072 0.9626844331
17.387218 32.494686 -0.49088937 -0.1012533456 -0.01892858271 0.9946805863
21.382263 32.592476 -0.41634393 -0.4273635308 -0.05453210909 0.9024337436
9.6228628 38.457157 -0.013358116 -0.447131439 0.04998072592 -0.8930707717
12.620417 37.53812 -0.45094758 0.3321955782 -0.03683680278 0.9424909272
17.406288 37.539169 -0.47369584 -0.04859195323 -0.03078807101 0.9983440874
21.3859 37.555233 -0.42173758 -0.4795585146 -0.03291471872 0.8768923835
12.721521 42.619644 -0.45898324 0.3443142136 -0.03757319332 0.9381023278
17.408421 42.520248 -0.48807478 -0.08170240528 0.01672496608 0.9965164286
21.436674 42.430771 -0.43004802 -0.4792179632 0.03119875822 0.877141255
12.537721 47.540211 -0.47265005 0.291076456 0.01317735693 0.9566090393
17.405056 47.48402 -0.49006239 -0.08001366677 0.0158471323 0.9966677889
21.415411 47.300945 -0.43957752 -0.4274061514 0.0545666653 0.9024114698
9.8483238 53.343895 -0.040021896 -0.4247617084 -0.03529248833 -0.9046170081
12.580181 52.416851 -0.45643911 0.2906653607 0.04902685567 0.9555679021
17.365593 52.478802 -0.48783916 -0.1682000885 -0.04232512279 0.9848438019
21.33684 52.557243 -0.45500264 -0.3504401682 0.003450697896 0.936578764
9.6135426 59.918812 -0.23020554 0.4334414832 0.06381031766 0.8989197539
12.641392 57.449295 -0.48840466 0.1809911865 0.03209127759 0.9829610065
17.249313 57.539604 -0.46810505 -0.1409762541 0.007812442199 0.9899821521
21.349636 57.552307 -0.46650371 -0.2803416797 0.03831165525 0.959135423
9.4579506 63.32185 -0.43392256 0.5055040896 0.06290487758 0.8605280889
12.501068 62.477818 -0.47823504 0.174926723 0.01775543475 0.9844213458
17.325411 62.524761 -0.46121901 -0.07294460714 0.03230874105 0.9968125348
21.823919 62.585857 -0.50523251 -0.2986800364 0.108852932 0.9481251368
25.126972 64.427773 -0.038898468 -0.4978547331 0.1444760321 0.8551417081
8.767292 67.857605 -0.49099541 0.3918399713 0.1442266973 0.9086584048
12.706212 67.559677 -0.49131787 0.09744918767 -0.01920750402 0.995055138
17.302971 67.493622 -0.44425479 -0.08607690537 -0.03177891703 0.9957815357
22.333294 67.518318 -0.51756448 -0.3263415086 0.02733749937 0.9448565399
25.764391 68.393692 -0.37636042 -0.5247863931 0.1836784572 0.8311807662
4.8099465 74.372147 -0.61357737 -0.5902682353 -0.1251809132 -0.7974416275
7.9054232 72.529137 -0.46204388 0.3617426034 0.2006609774 0.9104270762
12.721963 72.541267 -0.50145382 0.003262830109 0.03307818857 0.999447441
17.066866 72.551521 -0.46665132 -0.06696121703 -0.03789528767 0.9970356777
22.32823 72.545441 -0.53334975 -0.1302244809 -0.0293457699 0.9910501553
26.795038 72.849579 -0.43642521 -0.5557913605 0.0786252041 0.8275953364
4.6841555 78.169685 -0.4746066 -0.4850736022 -0.09536610448 -0.8692576756
7.6634755 77.296204 -0.48319164 0.2868173759 0.1231216282 0.9500404505
12.692709 77.356216 -0.49438587 0.02852525797 0.009755350175 0.9995454681
17.196306 77.526688 -0.44604245 -0.08052588464 -0.005257895989 0.99673865
23.019115 77.172943 -0.52331328 -0.1989775881 0.02396465446 0.9797109853
27.119011 77.592674 -0.46431118 -0.4227354762 0.1423910377 0.8949969327
4.3203211 82.610397 -0.59715539 -0.4297572015 -0.03973211364 -0.9020699013
7.5821433 82.479912 -0.47442013 0.247587069 0.04759246071 0.9676960271
12.687616 82.444336 -0.48625255 -0.04786898084 -0.02766193801 0.9984705193
17.247406 82.494499 -0.46513927 -0.04192546723 -0.02082292192 0.9989037297
22.306211 82.31282 -0.48798338 -0.06322467315 0.02873557941 0.9975855388
27.245007 82.649147 -0.48544449 -0.3729240967 0.1047968538 0.9219247461
30.020786 83.628174 -0.38367748 0.5803481623 -0.08010100648 -0.8104195452
3.7715926 87.993614 -0.57816494 0.460336173 0.04645550225 0.886528338
7.5384841 87.587059 -0.51327664 0.2488417655 -0.008260575155 0.9685089254
12.757929 87.500259 -0.47604096 -0.0514539611 0.01888213533 0.9984968477
17.301813 87.674812 -0.48097607 -0.01949185828 0.03193948974 0.999299723
22.349379 87.507767 -0.49557972 -0.03397905699 0.04746768415 0.9982946672
27.522305 87.634377 -0.49686491 -0.2982028482 0.1091312638 0.9482433383
30.338163 87.93969 -0.27451313 0.4968863616 -0.0545433293 -0.8660998608
3.4332869 92.631721 -0.49747348 0.4719536199 0.02585724571 0.8812441112
7.4943862 92.627808 -0.47918499 0.257492631 0.0445470647 0.9652528705
12.571328 92.564995 -0.48833269 -0.008857192868 0.006837940442 0.9999373944
17.340105 92.610489 -0.48776007 -0.02873496978 0.06207629351 0.9976576744
22.36891 92.614876 -0.48851588 0.000572660299 0.07032886924 0.9975236951
27.706436 92.461418 -0.49132237 0.2778637704 -0.08395433066 -0.9569448236
30.527927 92.724838 -0.44841221 0.5099718201 -0.0517958517 -0.8586302653
3.205636 97.499878 -0.44729367 0.5051865173 -0.04634726045 0.8617647673
7.7062883 97.50666 -0.48774177 0.144833768 -0.0132883229 0.9893667672
12.640018 97.431595 -0.47276178 -0.006792241087 -0.003605163214 0.9999704337
17.411997 97.473389 -0.50463784 -0.008754738629 -0.009382709307 0.9999176563
22.53821 97.551674 -0.49547625 -0.03918816365 -0.005725602543 0.9992154449
27.571869 97.537849 -0.50200623 -0.3580486328 -0.05821194409 0.9318865522
30.770109 97.417717 -0.44455901 0.5850566503 0.05597582179 -0.809058356
3.5872085 102.07861 -0.45241407 0.4918683073 -0.1208720412 0.8622386664
7.5142565 102.32305 -0.49637881 0.2897448917 -0.1184854109 0.9497415992
12.640862 102.50526 -0.47559378 0.01119248705 -0.04760833235 0.9988033715
17.403496 102.441 -0.49466318 -0.00502203605 0.01387020015 0.9998911924
22.380714 102.4473 -0.49448088 -0.08455776808 -0.08058522899 0.9931545724
27.729351 102.52116 -0.51879221 -0.4183114658 -0.1918485889 0.8878117123
30.674395 101.64912 -0.34175313 0.6178978014 0.1688793244 -0.7679075991
4.4079914 105.53296 -0.33025503 0.5006913975 -0.3207031054 0.8040258967
7.8906655 107.04839 -0.46468338 0.3062403897 -0.2986724521 0.9038869344
12.604124 107.64755 -0.46978503 0.1706609228 -0.3247988173 0.9302583392
17.519266 107.4128 -0.46002275 -0.0696380709 -0.2701053054 0.9603091497
22.483629 107.52617 -0.4870863 -0.2072616311 -0.2839506876 0.9361701893
26.414667 106.79429 -0.42476553 -0.3726438098 -0.3627317092 0.8541441905
9.2751474 110.31126 -0.2482814 0.2751226665 -0.578125816 0.7681653854
12.799723 110.90175 -0.45659655 -0.1777979871 0.5249355688 -0.832364418
17.228489 111.28062 -0.44414768 0.04032183658 0.5440865391 -0.8380596563
21.682903 110.8113 -0.39267349 0.1611665323 0.5015954349 -0.8499572746
8.5642052 3.4734213 3.6314058 0.7334420988 0.6015372825 0.3165684531
12.517419 2.7227356 2.6235676 -0.4303636076 -0.6933452577 -0.5779788221
17.47217 2.7467127 2.4693956 -0.1324807504 0.6217973524 0.7718917692
22.354198 2.9609053 2.8842561 -0.5426786108 0.5778229341 0.609606908
25.603409 3.9105213 4.0616994 0.8252031729 -0.4160085422 -0.3820688632
8.3415842 7.5428462 2.9454114 0.8303908319 0.276652796 0.4836468719
11.903455 7.3663535 0.74461603 0.3376824281 0.288157472 0.8960668775
17.47752 7.4936485 0.49753875 -0.1008162093 0.230881102 0.9677448056
23.144016 7.4453282 1.6645651 -0.6030073699 0.2960719435 0.7407587436
25.711174 7.5425081 3.7799687 0.8473364556 -0.18003107 -0.4996095925
8.5410948 12.51754 2.8015151 0.7719358977 0.04529690703 0.6340845055
11.953094 12.537169 0.70665193 0.3613219197 0.04548702539 0.9313309835
17.521475 12.540541 0.52138251 -0.2024993242 0.008502466707 0.9792454911
23.19784 12.53388 1.6822051 0.7403498648 -0.03059425471 -0.6715251814
25.560295 12.365857 3.6786366 0.8518098647 -0.0003828352147 -0.5238509405
8.5001364 17.555794 2.8815999 0.771907628 0.04125125516 0.6343949462
11.862999 17.466705 0.75603873 0.3364037407 0.0196233868 0.9415133806
17.431458 17.510023 0.5124104 -0.2126163429 0.006792060767 0.9771121525
23.210007 17.49514 1.6828183 -0.6926665209 0.01657716346 0.7210674645
25.565386 17.375078 3.7460535 0.840557722 0.02928119987 -0.5409300577
8.3121367 22.584042 2.9331539 0.7717953543 0.03628482921 0.6348348937
11.973177 22.390369 0.7196824 0.3871720614 0.01738423957 0.9218435784
17.499592 22.423481 0.50932926 -0.1475719857 0.007931322543 0.9890195161
23.256502 22.511415 1.6740327 -0.6139571408 0.04208955636 0.7882164034
25.818169 22.541674 3.937206 0.8413682518 -0.02948125117 -0.5396575957
8.3222551 27.649111 2.9370828 0.7659215211 0.05179487746 0.640844376
11.959074 27.520653 0.7191695 0.3888145943 0.03662777356 0.9205876479
17.529684 27.343668 0.49278274 -0.09138950891 8.492166727e-05 0.995815219
23.302755 27.520182 1.7116824 -0.593216324 -0.01027731349 0.8049774964
25.821882 27.603994 3.9296563 0.8362091771 0.0008590985528 -0.5484099507
8.3106127 32.535069 2.9743569 0.769469724 -0.01470032496 0.638514091
12.028399 32.504486 0.70950174 0.3868109112 -0.002294498851 0.9221561984
17.527603 32.489151 0.5080083 -0.1909845364 -0.01254071767 0.9815129328
23.270905 32.502323 1.6684997 -0.6168520429 -0.04409486337 0.785842987
25.812498 32.49271 3.9445226 0.8540218297 0.03608011797 -0.5189845273
8.5035019 37.429344 2.9079542 0.769985387 -0.05641476643 0.6355626467
11.984092 37.52663 0.70796478 0.3887669999 -0.03600797615 0.9206321988
17.647163 37.509121 0.49670783 -0.2478167278 0.02274736138 0.9685398427
23.305008 37.421906 1.8039274 -0.6984106229 -0.01874357419 0.7154518015
25.613348 37.353142 3.8253469 0.8387219871 0.05087819887 -0.5421778649
8.5097532 42.502869 2.8797746 0.7716972766 -0.02260389912 0.6355882135
12.04826 42.55201 0.73344469 0.3872411826 -0.004549436596 0.9219672278
17.540005 42.448769 0.48501909 -0.249402322 -0.03937947878 0.9675989554
23.254978 42.534378 1.7251067 -0.7005298992 0.01863871296 0.7133796035
25.606619 42.542614 3.8324795 0.84815523 -0.009254234552 -0.5296669378
8.3290691 47.545475 2.9297404 0.7668201872 0.01776436955 0.6416161061
12.038801 47.487335 0.73383754 0.3406813884 -0.005125528122 0.9401648369
17.560495 47.476345 0.50584364 -0.1497772064 0.006681788712 0.9886971944
23.285551 47.554497 1.7510452 -0.6055695718 0.01877923316 0.79557076
25.760706 47.545406 3.8610551 0.8512197675 -0.02891041984 -0.5240124951
8.3599558 52.446693 2.9495442 0.760130475 0.03577614208 0.6487848092
12.199604 52.555965 0.7268945 0.3394619711 0.0339523689 0.9400068121
17.486225 52.523918 0.4760206 -0.09859060075 -0.02260123864 0.9948713874
23.269239 52.492245 1.6860135 -0.5843887749 0.03091141136 0.8108848527
25.801992 52.460014 3.9202974 0.8429278728 -0.05505932712 -0.5352018981
8.3317299 57.431568 2.9194028 0.6928842047 0.1128522805 0.7121627915
12.16417 57.497269 0.68656468 0.3680357808 0.04893025391 0.9285232869
17.593998 57.57489 0.48493209 -0.1409762541 0.007812442199 0.9899821521
23.280977 57.489231 1.7033284 -0.5470499084 0.07576647399 0.8336641045
25.796967 57.393944 3.9665568 0.8167939282 -0.07756707163 -0.571691375
7.8463583 62.555977 2.4014208 -0.6071819013 -0.1027532479 -0.7878907975
12.40173 62.383438 0.59266919 0.3171254249 0.0169176711 0.9482327021
17.553707 62.496773 0.46600828 -0.1099975822 0.05936824938 0.9921572168
23.255951 62.208191 1.0559355 -0.416299873 0.1120371841 0.9022982241
26.045006 62.880367 3.0200646 0.7715932522 -0.1570097953 -0.6164347308
4.4886856 68.49295 3.5060823 0.8477202904 0.314473269 0.4271731176
6.7089376 67.383598 1.8461138 -0.6399576971 -0.2276744775 -0.7339063143
12.535455 67.463936 0.59899074 0.1997434402 -0.06431130583 0.977735452
17.605875 67.460854 0.48211971 -0.0797357344 -0.04343465363 0.9958692904
22.739443 67.473976 0.50035375 -0.3263415086 0.02733749937 0.9448565399
27.287342 67.652847 2.4720242 0.7754272327 -0.1781285147 -0.6057910853
3.707535 72.574501 2.7276211 0.7885241737 0.2275814795 0.5713460401
7.2834177 72.413437 0.64355832 0.4282570091 0.1761186734 0.8863284645
12.495623 72.51651 0.56378436 0.07906422119 0.05260487532 0.9954805754
17.681337 72.500061 0.56208241 -0.0690882029 -0.04187943649 0.9967311237
22.798422 72.471909 0.58862132 -0.3098215126 0.0411696363 0.9499029905
28.115257 72.315063 1.8885589 0.8201592819 -0.2040773127 -0.5345008912
30.365526 73.101593 3.4208934 0.8801136943 -0.2064874281 -0.4275076925
3.0648236 77.25148 2.551048 -0.704557663 -0.183342291 -0.6855538665
7.4158368 77.448959 0.50118989 0.3758778752 0.1020453639 0.9210334232
12.516323 77.396706 0.58663154 0.02852525797 0.009755350175 0.9995454681
17.705605 77.479988 0.65549928 -0.07107621206 -0.002034337925 0.9974688133
22.474379 77.393867 1.0310467 -0.1645312038 -0.006915572097 0.9863476354
28.180832 77.35997 1.3443829 0.7269265966 -0.1617303024 -0.6673987057
30.747622 77.631172 3.2357216 0.863279068 -0.1452745366 -0.4833679341
2.5926096 82.497421 2.2710242 0.7095365605 0.06050932115 0.702065874
7.6153188 82.548943 0.47947073 0.3105481432 -0.001232888764 0.950556853
12.45435 82.519669 0.57710403 -0.02420884055 -6.977223534e-05 0.9997069206
17.585995 82.544182 0.4872005 -0.04982798882 0.01099674865 0.998697273
22.597063 82.585739 0.74414098 -0.09477779504 0.04183141672 0.9946191744
27.835106 82.368652 0.81060416 0.3889074534 -0.1044775546 -0.9153335093
31.053148 82.612038 2.8827376 0.8160298883 -0.1208072208 -0.5652440507
-0.037014961 89.250183 3.6726251 0.9047967985 0.2107005585 0.3700648972
2.0914776 87.48027 2.2533553 0.7670319873 0.1257887284 0.6291574734
7.4813404 87.523987 0.54466367 0.3069534463 -0.002437937214 0.9517214079
12.364704 87.604774 0.6252172 -0.04764522683 0.02439605624 0.9985663547
17.537312 87.429054 0.58615619 -0.01341293239 0.0195264795 0.9997193655
22.566093 87.476158 0.64977908 -0.05035799703 0.08937171856 0.9947244684
27.654222 87.549225 0.5982303 -0.2982028482 0.1091312638 0.9482433383
31.516918 87.593819 2.6504014 0.8039320305 -0.11071599 -0.5843246186
-0.23823994 93.29641 3.7289019 0.8544744131 0.09623075066 0.5105028109
1.7976214 92.501984 1.9511913 0.7360308767 0.05076693232 0.6750416781
7.5356932 92.463417 0.60142928 0.306001948 0.01578704299 0.9518999827
12.449137 92.513016 0.53723419 0.008049476816 0.01146450601 0.9999018807
17.457153 92.583931 0.46808639 -0.01773956265 0.06947381043 0.9974260361
22.630079 92.530266 0.51255333 -0.03136596333 0.1161361018 0.9927379222
27.536602 92.695938 0.5847736 -0.3574837321 0.05465052202 0.9323189914
31.976776 92.570793 2.5033796 0.7820492096 -0.05432897547 -0.6208440997
-0.40054384 97.576546 3.2973022 0.8596684919 -0.03785854637 0.5094475581
1.555885 97.527046 1.8853223 0.8213562 -0.06310402814 0.5669143448
7.4265084 97.555031 0.58439863 0.2649069355 -0.01852521428 0.964096018
12.381965 97.621704 0.52235365 0.01138789634 0.009709379837 0.9998880156
17.565645 97.559044 0.50868005 -0.005411805254 0.0002934760253 0.999985313
22.554688 97.432999 0.49706727 -0.03918816365 -0.005725602543 0.9992154449
27.479387 97.567017 0.58346397 -0.3580486328 -0.05821194409 0.9318865522
32.369339 97.561096 2.4443235 0.8403020669 0.06414401794 -0.5383103021
-0.22590007 101.2401 3.564805 0.8846671474 -0.2356642586 0.4022765163
1.9141407 102.57634 2.1409817 0.7958554828 -0.295036415 0.528741491
7.4932852 102.53376 0.64908087 0.3568570164 -0.1669410646 0.919121184
12.452656 102.47368 0.52030635 0.04320108919 -0.05147801909 0.9977392843
17.574898 102.506 0.49167559 -0.0003514058854 -0.01070811464 0.9999426048
22.583267 102.4359 0.48604515 -0.08455776808 -0.08058522899 0.9931545724
27.555386 102.46058 0.63816744 -0.4139632672 -0.1835981971 0.8915862916
31.849274 102.40614 2.5845549 0.7801663026 0.2304478028 -0.5815791867
3.4062314 107.00937 2.7763252 0.6196847185 -0.4594564405 0.6363101673
6.9778876 108.05824 1.2407783 0.4472885809 -0.4721930022 0.7595832371
12.397143 107.35788 0.57459575 0.1706609228 -0.3247988173 0.9302583392
17.523546 107.55462 0.55456817 -0.04170536334 -0.343958581 0.9380581844
22.664377 107.54567 0.57707274 -0.2741677692 -0.4212506261 0.8645113905
27.890644 107.83354 1.9007487 -0.5571109529 -0.5573655287 0.6156062488
30.723764 106.19689 3.3178887 0.7834773213 0.4594029904 -0.4184640719
4.8928175 110.16537 3.4842174 0.5870253371 -0.6916725336 0.4207022224
7.9850559 111.36347 2.8525229 0.3633993187 -0.7350304628 0.5724256755
12.43146 112.73647 2.3049991 0.2304543365 -0.778027827 0.5844343412
17.404324 113.08051 2.1636043 -0.02316433983 -0.834753058 0.5501370243
22.404417 112.32465 2.4299576 -0.2563236688 -0.7481655594 0.61200202
26.232948 110.96615 3.184428 -0.5022042182 -0.747917204 0.434063105
7.6233001 2.3864872 7.5773859 0.7739655546 0.6302093137 0.06175387586
12.507783 0.36064628 7.4338131 0.2210957442 0.9741693985 0.04594186408
17.576769 0.34584704 7.3280678 0.07346792582 -0.996149761 -0.04783427141
22.627098 0.70461696 7.2973633 0.3921412024 -0.9158915088 -0.08583718008
26.190922 3.1112988 7.6681662 0.8205208693 -0.5713796122 -0.01645727244
6.9413838 7.567317 7.4591837 0.9861664983 0.1656591259 0.00571766131
24.794212 9.0919218 6.7966723 0.9729294754 -0.08432406441 -0.2151689754
26.239668 7.5173035 7.5505857 0.980218022 -0.1942909498 -0.03773136825
7.7334394 12.558137 7.4975629 0.9998112798 -0.01328402658 0.01417530954
24.6784 12.995612 7.5880518 0.999487225 0.01621376848 -0.02761160427
25.6894 12.361085 7.499794 0.9986709972 0.04109391771 0.03110513274
7.747664 17.446592 7.5445085 0.9998297148 -0.005693796311 0.01755340628
24.67831 17.263601 7.4334106 0.9913580156 0.1270455285 0.03269126089
25.646013 17.636412 7.5879264 0.9981033658 -0.009706964837 0.0607901804
6.9378676 22.54722 7.50843 0.9982542034 0.05390326564 0.02414504853
24.897512 20.506416 7.2171426 0.9954475828 0.01652095104 -0.09386782225
26.226616 22.632429 7.5515089 0.9993411134 -0.01871013703 -0.03110096209
6.4197378 27.529955 7.4788313 0.9998834882 0.0003812020798 0.01525990298
26.712509 27.615585 7.4832697 0.9993135669 -0.01465974101 -0.03402185973
6.9575357 32.589928 7.5238361 0.9998479587 -0.001798645869 0.0173442883
24.80579 34.236038 7.3022451 0.9995678559 -0.002738648853 -0.029267751
26.245598 32.48061 7.5623517 0.9995315967 0.01490277314 -0.02673003232
7.734066 37.438225 7.545105 0.9997538914 -0.02103106535 0.007060521185
24.679689 37.864964 7.5049257 0.9991318163 -0.0377653044 -0.01758963893
25.676283 37.445072 7.7372189 0.9975149155 0.05794754013 0.04007587709
7.7484808 42.48111 7.5771251 0.9997281127 -0.01396202731 0.01867518067
24.678013 42.175751 7.6349273 0.99938437 0.03183622934 -0.01474230091
25.687235 42.658051 7.5743895 0.9976344027 -0.00684698012 0.06840115118
6.9426761 47.520828 7.5614505 0.9977001815 0.06306733243 0.02483665376
24.859961 45.589245 7.3966722 0.9959071088 0.01911129245 -0.08833905801
26.245707 47.651424 7.5297084 0.9989503009 -0.04185562667 -0.01861190209
6.3873215 52.469902 7.6151638 0.9994750867 -0.01089543057 0.03050968093
26.673906 52.509483 7.48629 0.9991667023 -0.01541214737 -0.0377937388
6.4051113 57.480881 7.57411 0.9989647088 -0.0450933473 0.006008382807
24.947739 57.905289 5.0497723 0.9119110428 -0.05306758219 -0.4069423567
26.666269 57.490215 7.4941034 0.9979057712 -0.06009117609 -0.02393997218
6.3601651 62.504559 7.6515241 0.9653208542 0.2606813984 -0.01417240273
24.983088 60.791985 5.1062307 0.9352761683 -0.1299450027 -0.3292002207
26.706684 62.457584 7.4990387 0.9988114333 -0.04873377041 -0.0008604646792
4.3932648 68.676628 7.4884868 0.9109189766 0.4118113406 -0.02525940882
5.7192011 66.874229 7.5756173 0.9603356286 0.2777659723 0.02452641713
27.89621 67.490013 7.5724802 0.9773295056 -0.2116565251 0.005343489015
3.3981929 72.402794 7.5314546 0.9756595753 0.2126636681 -0.05350287209
5.0823493 70.24897 7.3129849 0.9666334668 0.2551351719 0.0229300028
17.980814 71.521645 7.9058094 0.4861520746 -0.873844348 -0.00722605402
23.750921 71.771866 9.2708988 -0.5983813091 0.7187548992 -0.3540214737
29.259985 72.017387 7.6278262 0.9164217574 -0.4001949367 -0.00389554461
30.496065 73.180611 7.4691038 0.9245601256 -0.3809028729 -0.0100784734
2.4956188 77.405693 7.6457601 0.9973674302 0.07251210341 0.000451669313
22.703487 76.293549 6.9359198 0.1793314074 0.98292301 0.04126260828
29.769596 76.576256 7.3810005 0.9918499903 -0.1119868526 -0.0607662867
30.792751 77.561005 7.5313659 0.9869150189 -0.1492455771 0.06102870715
1.864107 82.378586 7.4761267 0.9781063496 0.2015471898 -0.05183337818
19.468937 84.921814 6.3276286 -0.05164663665 0.9986648608 0.001058672183
31.3078 82.560074 7.5637069 0.9996653206 -0.0258007047 -0.001889583129
-0.06722641 89.83078 6.2123871 0.9556109987 0.1934418507 0.2222338173
1.1726273 87.545853 7.5162845 0.9686753494 0.2255596903 -0.1038792264
27.586065 86.361328 6.7378883 0.8625601326 -0.4786815581 -0.1638718512
31.937496 87.547821 7.5465875 0.998067451 -0.06194848297 -0.004873261207
-0.28198454 93.152916 7.3626542 0.9846696763 0.1736298145 -0.01668281018
0.76302123 92.339012 7.473176 0.9730975505 0.2199189514 -0.06867905153
32.584267 92.541069 7.5842333 0.9970538595 -0.07670369614 -0.0003797830334
-0.43449315 97.539543 7.4237604 0.98919613 -0.08706226285 -0.1179456604
0.48714784 97.555237 7.554285 0.9901695815 -0.1288428829 -0.05443998045
33.047218 97.59935 7.5774279 0.9994152774 0.02507730821 0.02324289162
-0.30485007 101.2141 7.7092342 0.952478097 -0.2786466596 -0.1230508588
0.98694235 102.76594 7.5137439 0.9265445933 -0.3704377761 -0.06550550064
32.338017 102.46739 7.5737009 0.9713110463 0.2378041762 0.002006266942
3.1264348 107.28875 7.6004748 0.8434993718 -0.5338560636 -0.05921581775
5.5501056 109.44873 7.666729 0.7076980741 -0.7051503912 -0.04389033661
28.792816 108.5996 7.5666914 0.7276568611 0.6843554368 0.04661682818
30.912106 106.3194 7.5679679 0.8062691753 0.5906663366 0.03230008941
4.8806558 110.20496 7.4825964 0.7076980741 -0.7051503912 -0.04389033661
7.6966581 111.62768 7.5087867 0.4513192945 -0.8923374441 -0.006691801683
12.4173 113.65263 7.6168404 0.1395137525 -0.9889533098 -0.05007258695
17.400023 114.17972 7.5048752 -0.01114244892 -0.9997300639 -0.02038737759
22.569935 113.04912 7.5560551 -0.2918042877 -0.9564780411 0.0001203145451
26.432035 111.10127 7.5379939 -0.6323786411 -0.7703755918 -0.08135540501
8.0150433 2.7757807 12.192937 0.7746450166 0.5889657797 -0.2303137178
12.512568 1.7058214 12.892169 -0.3103666422 -0.7459263551 0.589293153
17.471888 1.649763 12.783396 0.06950756849 -0.7966793713 0.600392103
22.489126 1.9138969 12.841931 0.475807268 -0.6203416998 0.6235251552
26.056614 3.2717006 11.698797 0.7706886097 -0.5030462569 0.3911310909
7.7129259 7.4757166 12.669638 0.7575291753 0.1857020162 -0.6258308954
12.460342 7.5317693 14.252054 -0.285672098 -0.1827965136 0.9407321016
17.365583 7.6293893 14.248857 0.1309843465 -0.1454652961 0.9806543472
22.861561 7.5701704 14.139771 0.588888921 -0.2897141113 0.7545035271
26.006474 7.4108362 12.163795 0.8660464851 -0.1633807853 0.4725147666
8.1761379 12.498131 12.644847 0.8336725653 0.008870394546 -0.5521878031
12.570493 12.435266 14.214705 -0.292424828 -0.0253397313 0.9559527279
17.331053 12.592247 14.069451 0.1290199621 0.03706486502 0.9909490628
23.086929 12.538265 13.658722 0.688940908 0.02389453107 0.7244235478
25.623562 12.412498 11.911693 0.8534848189 0.04155139248 0.519458512
8.1773653 17.586241 12.633753 0.7963463759 0.04009412023 -0.6035104896
12.414181 17.410929 14.258752 -0.2790798553 -0.01358163414 0.9601718459
17.270552 17.460993 14.120418 0.1483332121 -0.004892069659 0.9889253389
23.183449 17.355227 13.633089 -0.6831976761 0.03578533226 -0.7293561169
25.590534 17.778393 12.048226 0.8526127164 -0.06311563933 0.5187176226
7.6803551 22.589422 12.637025 0.8226199939 0.0148999634 -0.5683962849
12.553186 22.449379 14.249869 -0.2794262555 0.001465665771 0.9601660375
17.197208 22.577852 14.150971 0.1043272018 -0.04957289328 0.993306782
22.758234 22.432186 14.171463 0.5676873966 -0.03824133968 0.8223555312
26.008806 22.719091 12.159749 0.845059116 -0.04055292494 0.5331327703
7.4071498 27.545128 12.674608 0.8171269022 -0.009181871022 -0.5763846969
12.531721 27.488953 14.211017 -0.283243602 0.006172114177 0.9590281367
17.260567 27.475973 14.079719 0.05263173176 -0.01401915586 0.9985155803
22.890171 27.521486 14.19768 0.5686222607 0.0007520518577 0.8225984191
26.348499 27.623922 12.147979 0.8376271206 -0.001379586265 0.5462407011
7.6450267 32.481972 12.661716 0.8238372626 -0.03347846349 -0.5658368645
12.375134 32.310879 14.331908 -0.2825698806 0.01026627406 0.9591917776
17.290878 32.397507 14.287673 0.1465445463 0.01716003304 0.9890552205
22.891739 32.506344 14.118763 0.5581118306 0.05093944529 0.8282006746
26.038666 32.499939 12.145876 0.8402689726 0.03625775537 0.5409560323
8.1739817 37.484436 12.612103 0.7683880851 -0.008062237847 -0.6399333958
12.509359 37.46455 14.200709 -0.2746365401 0.008902879696 0.9615068952
17.396709 37.529129 14.017479 0.152186336 0.002693752341 0.9883481486
23.210098 37.563133 13.701156 0.6692623248 0.03048071196 0.7424007454
25.628866 37.298698 12.004543 0.8451661822 0.0174730164 0.5342179501
8.1884899 42.53569 12.570786 0.7744351768 0.005680944106 -0.6326277609
12.308987 42.426414 14.302979 -0.2752482871 -0.01177984532 0.9613010016
17.352793 42.351963 14.376121 0.1511961836 -0.00996035944 0.9884535929
23.273046 42.475002 13.707403 0.6657222966 -0.03300488145 0.7454693164
25.576687 42.611057 12.014091 0.8456051469 -0.02021486963 0.5334259973
7.7099266 47.623951 12.699467 0.7593646629 0.02874418273 -0.6500300614
12.264997 47.366695 14.364557 -0.309793472 -0.00265759228 0.9508001588
17.285666 47.392883 14.381127 0.1069593816 -0.04954537372 0.9930281701
22.946049 47.386028 14.119988 0.5626539908 -0.04253144302 0.8255977004
26.062916 47.683605 12.064551 0.829439272 -0.0479195618 0.5565376983
7.4482083 52.576206 12.67137 0.807135106 0.02952677132 -0.5896279254
12.309484 52.386738 14.376236 -0.3002827032 0.01810077531 0.9536784889
17.330576 52.508442 14.379078 0.0555534855 -0.01403389287 0.9983570805
22.978724 52.462025 14.24687 0.5764930683 0.004421093072 0.8170900784
26.332909 52.489079 12.082342 0.8466884523 0.00793753861 0.532029755
7.5130062 57.443527 12.770519 0.7006400422 0.07004836546 -0.710068136
12.278001 57.455368 14.347383 -0.2813943244 -0.01454997858 0.9594819083
17.281353 57.453201 14.368929 0.07378412612 0.01296949412 0.9971898991
23.10248 57.484985 14.228666 0.5932547897 -0.05314036639 0.8032588972
26.410294 57.444771 12.090627 0.8348256209 -0.02387193251 0.5499966486
7.5491176 62.51091 12.871783 -0.6813484224 -0.1396344851 0.7185169016
12.311521 62.421295 14.371992 -0.2854632318 0.004892664623 0.9583771727
17.341272 62.425934 14.387865 0.05051970064 -0.01445602429 0.9986184372
22.954338 62.461815 14.254543 0.5090794927 -0.08706044505 0.8563051728
26.406897 62.559322 12.116132 0.748439618 -0.1523615263 0.6454642543
4.498538 68.584518 11.545607 0.8968897162 0.1940844723 -0.3973915632
7.0118718 67.573616 13.195428 -0.7003507305 -0.1107022094 0.705162304
12.280832 67.585602 14.363324 -0.2518524843 0.002443456745 0.9677625513
17.293251 67.545441 14.371387 0.08776393473 0.05314463011 0.9947226448
22.780054 67.560364 14.379188 0.3052060064 -0.04072100416 0.9514153107
27.075787 67.594627 12.518949 0.7673726661 -0.2384229325 0.5952257526
3.7026541 72.679794 12.052066 0.791293974 0.1918009187 -0.580574073
7.1620989 72.421944 14.194784 -0.4402567532 -0.1517509079 0.8849551702
12.239961 72.547081 14.353857 -0.1201971372 -0.02314059697 0.9924803076
17.387575 72.509933 14.270203 0.105593782 0.03884135906 0.9936504929
22.84 72.489563 14.289749 0.3754929928 -0.04780843011 0.9255913603
28.256037 72.396721 12.969202 0.7648852074 -0.2394367404 0.5980139353
30.474648 73.290939 11.212023 0.8870153001 -0.2823376975 0.3653618508
3.3174312 77.439026 12.579795 0.724871853 0.1612265499 -0.6697512944
7.5578876 77.383011 14.39609 -0.3792445954 -0.07562185877 0.9222011013
12.285192 77.39286 14.351706 -0.002828006516 -0.06199392481 0.9980725202
17.302782 77.464951 14.344723 0.09632488261 -0.09034674404 0.9912411325
22.830273 77.463478 14.403414 0.2002619795 -0.09590528601 0.9750370843
28.294964 77.237961 13.574759 0.6018642241 -0.1792384871 0.7782242739
30.606005 77.61805 11.781643 0.8703320193 -0.1473161345 0.4699150271
2.7989755 82.540024 12.66132 0.6421415682 0.09786316163 -0.7603137562
7.5532055 82.427605 14.376771 -0.3056315362 -0.03206983053 0.9516096311
12.296585 82.302116 14.346745 -0.02748763184 0.008446088102 0.9995864613
17.298594 82.426941 14.362397 0.06797479443 -0.003706113829 0.9976801552
22.784706 82.479294 14.415285 0.1029552041 0.004338010399 0.9946765342
28.155792 82.432999 14.076582 -0.4657198652 0.1510910155 -0.8719383649
30.994558 82.611603 11.992039 0.8217647252 -0.1097881009 0.5591505247
-0.011346817 89.606049 10.009576 0.9057888494 0.1707802105 -0.387789479
2.3231049 87.527969 12.749308 0.7412698272 0.1286155556 -0.6587693695
7.5679717 87.512062 14.387114 -0.2630823941 -0.01668278605 0.9646291197
12.326381 87.46769 14.213438 -0.06172752471 -0.1298839856 0.989605913
17.373451 87.429756 14.233511 0.002507385287 -0.3605991807 0.9327175049
22.785946 87.451775 14.436279 0.1178132589 -0.2042003282 0.971813903
27.991125 87.449303 14.333022 -0.4084019521 0.09885529637 -0.9074334554
31.38784 87.646484 12.324675 0.8310480585 -0.1415502423 0.5378872125
-0.27374473 93.334229 11.085054 0.8924301033 0.1112982659 -0.437242732
1.9395336 92.512177 12.949225 0.7284368226 0.06304396235 -0.6822061669
7.520431 92.647079 14.123348 -0.4305965402 -0.07630754373 0.899312948
12.063554 92.053452 14.023202 -0.165782125 -0.2247198283 0.9602173118
17.567883 91.568275 14.081467 0.0320513244 -0.3110406568 0.9498560009
22.540636 92.578537 14.153911 0.2080706135 -0.1691121149 0.9633834711
27.650217 92.471504 14.442108 0.5048119606 -0.1247451212 0.8541683319
31.852175 92.63092 12.583796 0.7800731552 -0.1271435307 0.6126339813
-0.39397544 97.623116 11.254277 0.8713817965 -0.04389265621 -0.4886381068
1.7849526 97.559013 13.19595 0.744310329 -0.06734064158 -0.6644301109
7.4523311 97.548553 13.96688 -0.5063541366 -0.0009059768701 0.8623251519
10.915656 97.249222 14.089837 -0.2756005903 -0.02403504752 0.9609717119
22.804686 97.459297 14.283415 0.3374006054 -0.0001752151687 0.9413611426
27.454042 97.493652 14.39424 0.6169035362 0.06714976347 0.7841689463
32.209068 97.512001 12.637424 0.8571337536 0.05874820645 0.51173272
-0.29360902 101.03589 11.245743 0.9050870061 -0.218348138 -0.3648857382
2.0955474 102.53008 12.863199 0.7409481556 -0.2822155637 -0.6093851051
7.5341949 102.4012 14.141294 -0.4692769124 0.2379643983 0.8503835162
12.134162 102.91742 14.029654 -0.2804782774 0.327772901 0.9021623253
17.411648 103.67896 14.140404 0.01919116952 0.3127205455 0.9496512831
22.418386 102.41824 14.162323 0.2937672112 0.253335671 0.9216951033
27.66642 102.62751 14.42421 0.5380651364 0.2883174641 0.7920599402
31.683985 102.39061 12.422373 0.7889580867 0.2616586277 0.5559495481
3.5396948 107.03492 12.128568 0.655400147 -0.4588183693 -0.5999469571
7.0896559 107.84277 13.803844 -0.4667502306 0.495590084 0.7324852838
12.346264 107.40657 14.189127 -0.2097220994 0.4920667711 0.8449183001
17.366526 107.34322 14.155069 0.03403533393 0.6286627906 0.7769328746
22.559856 107.65757 14.324849 0.2752876171 0.510811551 0.8144251269
27.885172 107.83968 12.997417 0.5540632833 0.5604883413 0.6155214841
30.750536 106.14994 11.602322 0.7758082516 0.4570952009 0.4349546346
4.8070288 110.16162 10.622461 0.6506456922 -0.6873437133 -0.3228293712
8.099659 111.26155 12.13169 0.4176819819 -0.7701166608 -0.4821432265
12.458575 112.58293 12.734754 -0.2088526712 0.7795762944 0.5904586039
17.395321 112.87368 12.878257 -0.06446857641 -0.781254664 -0.6208743453
22.393339 112.17165 12.593733 -0.2879996382 -0.7711130053 -0.5678388341
26.198223 110.9266 11.716808 -0.4973021462 -0.7493510583 -0.4372225598
9.3882847 4.5472956 15.197975 -0.5240649167 -0.4432499032 0.727245135
12.672694 4.0691581 15.259298 -0.3300556962 -0.5030582521 0.7987462879
17.538441 4.0724316 15.255602 0.1152942546 -0.3930151968 0.9122753367
22.240074 4.044157 15.295635 -0.5417533349 0.3576247685 -0.7606627696
9.5096016 7.6354675 15.32666 -0.6622193078 -0.1686129977 0.730092628
12.447753 7.2572651 15.35462 -0.285672098 -0.1827965136 0.9407321016
17.928663 7.3565068 15.367018 0.1591743542 -0.1765153813 0.9713422904
22.221085 7.4539242 15.336454 0.4311761269 -0.1126311029 0.8952102447
9.4476995 12.47582 15.25866 0.4147143832 0.03148788662 -0.9094066711
12.400406 12.725339 15.377293 -0.2701614513 -0.008450093993 0.9627779527
17.888958 12.734261 15.371615 0.08501150667 0.02314047608 0.9961112197
22.162012 12.435749 15.343343 0.5469066658 0.004755159315 0.8371800806
9.3550167 17.476055 15.221171 0.5800235351 0.006900373078 -0.8145704903
12.135733 17.830128 15.37832 0.3180076251 -0.01844771132 -0.9479086624
18.03718 18.069927 15.386486 0.1413973113 -0.04719185867 0.9888274515
22.116034 17.391155 15.334251 0.4695364445 -0.05516469359 0.8811880525
9.3082333 22.233313 15.230077 0.5687751652 0.00950870855 -0.8224380803
12.042003 22.457695 15.36122 -0.2999679408 -0.003861711213 0.9539414666
17.986036 22.247623 15.377491 0.07450522357 0.008298844037 0.9971860914
22.209597 22.39996 15.365055 0.4177029858 -0.03990424502 0.9077069279
9.3645201 27.319901 15.291906 0.5711148541 -0.0004543509499 -0.8208700366
12.199193 27.466419 15.412765 -0.283243602 0.006172114177 0.9590281367
18.199324 27.465265 15.370619 0.09933471103 -0.0002475337623 0.9950540457
22.118671 27.407818 15.354977 0.3691663554 0.03797341993 0.928587218
9.3898363 32.524445 15.284139 0.575681184 -0.01044385224 -0.8176075466
12.395101 32.818741 15.38449 -0.2263635192 0.0153633287 0.9739217244
17.636217 32.778244 15.386499 0.07830600583 -0.01218371042 0.9968549176
21.943134 32.435673 15.388685 0.3912212958 0.04977036326 0.9189498401
9.3894482 37.289135 15.253481 0.5950372612 -0.005234659354 -0.8036810662
11.968916 37.524277 15.415768 -0.3098351445 0.002243208372 0.9507876478
17.689438 37.536636 15.40058 0.152186336 0.002693752341 0.9883481486
21.92017 37.373135 15.39323 0.4642486668 -0.007125502099 0.8856762403
9.5259352 42.388496 15.282968 0.3711340544 0.005859050065 -0.928560814
12.331392 42.566246 15.403355 -0.3107855184 -0.005447748289 0.9504644568
17.34417 42.520615 15.382311 0.1511961836 -0.00996035944 0.9884535929
21.90402 42.513401 15.38678 0.465288233 -0.01397309116 0.8850489325
9.3243389 47.241444 15.191044 0.5914870886 0.01136144602 -0.806234421
12.434089 47.39122 15.400028 -0.2098094145 -0.03026992465 0.9772736266
17.421204 47.413334 15.407141 0.06231774953 -0.02244953124 0.9978038468
21.991371 47.50037 15.411424 0.4114003382 -0.02116694209 0.9112089345
9.2416286 52.422977 15.185608 0.5760434623 0.01158503091 -0.8173369664
12.464067 52.671101 15.409637 -0.2140537738 -0.02875593072 0.9763985244
17.417694 52.440613 15.402828 0.0743269671 0.01292130195 0.9971502103
21.984505 52.477398 15.378797 0.3732900063 -0.01612063054 0.9275746312
9.1346569 57.580593 15.112781 0.5560723147 0.01796268872 -0.8309397828
12.462062 57.470005 15.385712 -0.2078408286 -0.03348269405 0.9775894328
17.606359 57.511562 15.408571 0.07378412612 0.01296949412 0.9971898991
22.14616 57.534184 15.363596 0.3956980591 0.01546766718 0.9182504001
9.1299267 62.852856 15.140109 0.4366220709 0.02494609292 -0.8992990936
12.196826 62.422005 15.414585 -0.2854632318 0.004892664623 0.9583771727
17.42853 62.521641 15.41788 0.04132441957 -0.009897657228 0.9990967564
22.239193 62.620914 15.379441 0.3936165766 -0.08810538198 0.9150428582
8.5873442 67.726837 15.341293 -0.4432474836 -0.08208496743 0.8926330301
12.235312 67.482391 15.415526 -0.1863314078 0.0124559813 0.9824079881
17.407154 67.49279 15.417735 0.04427657388 0.05828930429 0.9973173728
22.500736 67.640244 15.393734 0.248939479 -0.05123083596 0.9671631389
25.717836 68.215462 15.237907 -0.4308676983 0.1141792537 -0.8951626246
7.6436229 72.626091 15.36705 -0.4023170538 -0.1069900503 0.9092272089
12.341714 72.534599 15.400702 -0.05229379051 -0.01044334894 0.9985771357
17.485319 72.411827 15.417809 0.105593782 0.03884135906 0.9936504929
22.707991 72.580345 15.386932 0.1937678487 0.003668713411 0.9810405503
26.756956 72.712639 15.318316 0.4850238462 -0.09486571032 0.8693401898
7.438128 77.432449 15.393147 0.3770020235 0.07759775927 -0.9229561539
12.213689 77.53035 15.426868 -0.05032126516 -0.02055387124 0.9985215614
17.336624 77.53521 15.420898 0.08595136013 -0.09196377039 0.9920458803
22.678528 77.544258 15.3814 0.1442596986 -0.04078953706 0.9886988182
27.121284 77.419266 15.374865 0.5459745389 -0.1247745499 0.8284582757
4.0607786 82.776886 15.26684 0.5186464781 0.06343176239 -0.8526325365
7.2528977 82.374374 15.397695 0.2613414515 0.0608771804 -0.9633247711
12.211255 82.502808 15.406433 -0.03252572201 -0.03295975584 0.9989272906
17.503052 82.525009 15.419589 0.002344539639 0.008311904947 0.999962707
22.653198 82.425346 15.395788 0.03244541827 -0.02188012718 0.999233984
27.389896 82.455101 15.331662 0.4365508998 -0.08785801623 0.8953794061
3.7867889 87.650253 15.271714 -0.5245724696 -0.08659631476 0.8469502951
7.3745356 87.364159 15.395097 -0.3140970746 -0.06071755519 0.9474473105
12.284711 87.092644 15.420226 -0.09180666728 -0.1709178682 0.980998786
17.625616 86.768272 15.402381 -0.00854079337 -0.2360615586 0.9717005688
22.624805 87.413879 15.383229 0.1178132589 -0.2042003281 0.971813903
27.382055 87.586906 15.40767 0.3462925678 -0.0726725835 0.9353075179
30.25581 88.621384 15.138616 -0.5827176611 0.04882546355 -0.8112066331
3.42309 92.841423 15.331693 -0.5657465642 -0.07892174084 0.8207936305
6.7735109 91.871254 15.405029 -0.5456045204 -0.05597803908 0.8361711347
12.792804 93.060616 17.379536 -0.256820758 -0.6426976732 0.721791382
17.50555 93.002884 17.598619 0.1123235691 0.6907764276 -0.7142907971
22.030243 93.113808 16.747986 0.3484856825 -0.46161804 0.8157613096
27.410501 92.695145 15.397637 0.4991082397 -0.1703289891 0.8496346277
30.481125 92.833313 15.204012 -0.6130558867 0.09226983661 -0.7846328804
3.4978871 97.500504 15.317808 -0.5553372338 0.02223686712 0.8313279007
5.7370238 97.268936 15.30246 -0.5283343026 0.01801078453 0.8488453784
11.313125 97.514297 17.683428 0.6176637972 -0.01712102787 -0.786255877
21.170303 97.50518 17.702736 0.7736929777 0.006522572562 0.6335271362
27.763615 97.537994 15.358232 0.646864895 0.05344414504 0.7607296044
30.753372 97.362503 15.277489 0.6076953427 0.08593117833 0.78950757
3.7606928 102.25136 15.247686 -0.5454500619 0.1576316642 0.8231867883
6.7954249 102.80733 15.354467 -0.5703922407 0.2598472725 0.7791868112
12.530475 101.76781 17.562721 -0.3625738844 0.4485236203 0.8169251743
17.674559 102.72744 17.733009 0.05156821184 -0.6379822703 -0.7683224208
21.444937 101.79259 17.075466 0.4598786706 0.3363702169 0.8218069637
27.377733 102.36274 15.383209 0.557957981 0.2747623552 0.7830635604
30.577869 101.57894 15.127793 0.6137105479 0.139896259 0.7770382231
4.6017365 105.53076 15.139517 -0.525430347 0.3158421465 0.7900422071
7.8127694 106.99033 15.337375 -0.3797204573 0.3830568317 0.8420687846
12.197522 108.0509 15.37456 -0.2102949328 0.6093946892 0.7644698516
17.678999 108.36874 15.395808 0.03403533393 0.6286627906 0.7769328746
22.58956 107.55066 15.386578 0.3132547763 0.5060363974 0.803615959
26.599497 106.48383 15.271488 0.4410525237 0.4229574994 0.7915678272
9.3856897 110.20509 15.258348 -0.2820898279 0.6179687181 0.7338528411
13.080803 110.80624 15.33664 0.1910666181 -0.5758889977 -0.7948870421
17.373173 110.83808 15.348097 0.07196187647 0.6150630914 0.7851871636
21.670074 110.65519 15.243186 0.2188843223 0.6261741957 0.7483284908
12.855571 93.354431 22.508921 -0.4518422103 -0.5195555553 0.725190073
17.455204 93.108109 22.542175 -0.01103967724 -0.7075263892 0.7066006893
20.992483 94.150673 22.384634 0.5788453251 -0.4330599011 0.6909393691
11.590739 97.465202 22.636969 0.6958837503 -0.007620974548 -0.7181140068
17.808401 97.882652 24.996447 0.9079463578 -0.1608658959 0.3869826545
21.235003 97.472534 22.530703 -0.6988555189 -0.003079966233 -0.7152562321
12.597836 101.60883 22.569902 0.4014251853 -0.5786735011 -0.7099259114
17.631115 102.60091 22.649038 0.02603557878 -0.7107998666 -0.7029122977
20.719053 101.27495 22.622898 -0.5892765759 -0.4155664324 -0.6928619324
13.461686 93.799316 25.846115 -0.3860135 -0.5932470616 0.7064357732
17.343861 93.90686 25.952328 0.01474067745 -0.7414164824 0.6708832328
20.84605 94.244347 25.815666 0.4250615623 -0.5654404417 0.7068237229
13.057262 97.499023 25.933187 0.6528287005 -0.4195235461 -0.6307255204
17.397434 97.469681 26.034887 -0.03312971508 -0.9983031755 0.04788728243
20.93231 97.256226 25.913397 0.703747001 -0.1455539064 0.6953806288
13.118457 101.11074 25.853594 0.4691574896 -0.5350518504 -0.7025743856
17.414867 101.39165 25.924101 0.342687728 -0.689108176 -0.6385100178
20.723339 101.11796 25.842964 0.4432108996 0.559764708 0.7001625312
